153.275340,-21.019856,304.985819
154.443204,-22.954936,305.014717
154.576093,-24.745788,308.011741
154.940046,-21.249978,300.426308
156.601108,-25.301324,303.113176
159.837357,-30.637494,303.776617
152.900971,-24.321872,312.637371
153.091229,-26.137393,315.343508
153.312198,-28.866728,319.612526
154.615268,-28.543683,314.817892
155.367396,-31.693515,318.286134
157.976344,-33.022660,313.089830
158.312179,-34.746782,315.032672
158.498831,-30.842734,307.935111
161.323637,-26.157903,316.737840
161.721669,-28.283556,318.509563
152.784973,-33.580122,330.237305
155.043997,-33.310006,322.114993
158.742673,-39.602226,322.051263
159.577600,-32.879296,330.691654
160.079233,-28.592859,323.452981
161.188058,-35.610074,329.728721
153.028220,-36.046481,333.952175
154.783539,-40.534466,335.816731
155.477360,-37.972942,329.131097
158.169910,-46.524701,335.237652
158.347107,-41.717482,326.863815
158.373885,-45.693490,333.311549
159.369103,-39.920895,340.797771
159.495756,-34.809659,333.486689
160.911306,-37.655438,333.229686
154.815703,-47.645334,347.893318
155.557446,-43.866601,339.176829
155.563839,-45.770922,342.176375
157.947845,-48.835367,339.519440
158.969350,-50.761255,344.916254
161.436095,-45.194144,341.092020
162.339858,122.315005,52.643587
163.129903,118.061463,50.382881
166.677676,119.083912,50.778114
167.122483,121.474765,52.158474
162.425086,106.841799,72.713544
163.547814,107.519245,78.631569
166.801236,106.175051,78.159824
167.974271,105.352040,72.396501
169.137925,105.304536,77.570172
171.070769,104.809729,73.099985
171.828009,102.331506,80.333330
162.611819,98.288221,92.456611
163.340374,103.856574,85.250002
163.383431,101.505411,89.244158
166.122749,102.357593,85.368757
167.381867,100.284928,87.837750
169.264860,102.244650,82.766344
161.945507,93.531325,93.249284
167.067460,95.846443,92.103743
170.707553,94.988172,91.329240
162.220821,85.890236,107.498563
163.422368,83.743454,110.641841
167.965159,81.589814,109.162795
162.795730,81.875228,115.630593
164.010316,78.144061,121.584393
166.778303,76.476319,121.422040
166.844435,81.484843,110.932768
166.855924,80.183627,113.842503
163.353473,76.518453,125.416334
167.067125,74.848499,124.133480
167.576976,72.071253,128.469619
162.731461,71.083754,135.703886
164.014809,67.535128,140.168131
166.939035,66.395017,138.736150
167.125329,68.452787,135.134207
166.235506,58.868784,151.555901
166.494108,60.645125,148.464287
166.600525,64.299686,142.562460
162.629485,56.003620,160.420938
163.443289,59.704638,153.506065
166.117608,54.387743,158.807568
167.933084,51.250113,161.333165
168.508343,54.337487,155.948826
163.219258,51.516952,166.715572
163.793727,53.468018,163.053984
164.928570,46.605324,172.313600
165.134385,52.529929,162.829612
162.060745,45.388462,177.912399
162.075765,43.537405,180.661150
163.523920,47.269144,173.047024
164.905667,43.833665,176.484918
162.895821,36.288568,190.717855
173.221722,47.431479,188.038409
164.085477,30.918869,196.953426
172.814011,37.607235,202.944555
173.149138,41.399186,196.925243
161.832548,23.324117,211.566708
162.344545,26.281990,206.472944
163.443193,27.000400,203.749205
171.501316,35.552059,208.457990
172.775015,30.110888,213.401617
162.519306,16.840863,220.240083
162.960343,20.603233,213.986531
169.727780,27.741991,222.894514
171.804584,25.145025,222.278840
172.076829,27.803291,218.023954
168.792531,21.614388,233.381591
169.301413,23.734878,229.387988
170.855783,18.661742,233.106868
171.524629,21.419533,227.860043
167.327903,16.024194,244.547829
169.439256,16.492393,239.285536
170.718357,15.202895,238.217220
171.248793,12.256235,241.001530
166.532084,7.502045,258.074420
167.119749,9.344811,254.169397
167.236663,11.498119,250.942376
170.045979,3.308423,255.585386
171.906769,1.677904,253.457953
172.056533,4.240849,249.671399
167.844072,1.918591,262.546880
168.179840,-1.203196,265.854690
169.061020,-1.732490,264.547828
171.032622,-5.060199,264.417346
171.774178,-3.289660,260.429500
165.802605,-2.739193,273.483818
167.020686,-7.002451,276.135300
168.930404,-5.107777,269.242815
170.564100,-10.720727,272.856372
171.293147,-7.555468,267.079132
163.113713,-9.311343,288.877078
164.154432,-6.017545,281.926553
165.873460,-13.083157,287.068738
166.636839,-9.171106,279.971875
168.467447,-16.774655,285.548312
170.064896,-13.615208,277.759938
163.324743,-14.116346,294.913332
163.464747,-11.699219,291.194746
165.858514,-17.381994,292.950927
166.078172,-15.478634,289.768301
168.060615,-20.877729,292.094164
168.687150,-18.352886,287.104308
162.306972,-17.897783,302.845369
162.946291,-21.265510,305.703828
165.131986,-21.735428,300.799600
165.355801,-23.993538,303.344877
167.108483,-24.159840,298.868222
167.282201,-26.799606,301.801259
162.332430,-24.700334,311.999615
165.937580,-35.099400,316.085222
166.251711,-33.046281,312.601296
166.330672,-30.372569,308.948053
162.531569,-35.331704,325.645622
163.758620,-39.245671,327.059626
164.682477,-35.571239,320.132364
165.244460,-41.210465,325.510475
166.055284,-39.578817,321.442113
163.238391,-45.967806,337.138755
164.136961,-42.513135,330.270235
165.163979,-45.608239,331.239911
163.276918,-47.942254,339.309486
174.519822,117.770873,50.020031
174.653574,124.681265,54.009748
178.297609,121.577832,52.217980
178.990155,117.480083,49.852143
182.289824,118.183948,50.258520
183.529019,125.443777,54.449984
173.910848,103.514425,76.393042
178.537234,101.328011,76.175723
179.504528,101.462931,74.848022
180.290781,98.852789,78.822956
174.446210,97.318483,86.685286
177.761867,98.459950,81.755594
178.365156,95.753422,85.906409
180.173844,95.183332,85.283271
175.635554,91.099531,114.735454
179.172657,89.185945,113.365210
181.822024,87.049454,112.822646
183.850869,90.279678,110.913879
175.108857,88.768916,118.185703
175.738833,84.696397,125.242150
177.828341,86.498949,117.828147
180.013828,81.893740,123.241632
182.086445,80.505421,122.412065
184.185318,84.389942,112.893150
184.269346,81.823722,116.061316
177.947119,79.161613,131.983867
178.494870,81.009797,127.564653
181.906506,76.836401,129.732142
184.279039,76.584932,126.262022
184.489622,75.138993,128.527522
177.514605,72.708609,143.200345
179.074287,74.349032,138.386404
181.608274,70.133340,141.042103
182.188317,73.879634,134.280999
184.537522,68.390991,139.359645
184.668012,70.399325,136.062396
175.476841,70.551137,149.789249
178.976006,67.518965,148.873847
179.811574,65.412490,150.831363
181.237563,64.337181,150.303758
181.487962,68.229624,144.110988
183.638841,61.982101,150.008722
184.259698,65.980490,143.410234
175.146147,63.716046,160.683509
175.215825,65.697641,157.509582
176.853545,64.615401,156.501014
179.331056,59.115009,160.731133
183.369159,59.745634,153.582266
183.733985,57.168587,156.730494
174.953907,59.753635,166.915720
175.009459,57.628512,169.915768
178.267479,54.169612,169.555889
178.281560,50.609339,174.624941
178.687840,56.996746,164.841064
180.328555,49.382072,172.993875
180.373065,51.261566,170.188743
182.157106,51.832418,166.543702
183.437720,52.520234,163.559312
174.333162,51.043383,180.825381
174.574896,52.759355,177.924979
177.373469,46.276526,182.430321
177.641086,48.264506,179.100242
179.677263,44.022499,181.557620
180.580586,46.457618,176.713544
181.637101,44.966359,176.933968
182.272970,46.737287,173.447104
173.405669,45.812105,190.126263
178.673528,38.629245,190.880801
179.228924,39.915471,188.070923
181.486420,36.067481,189.222251
181.594223,37.432899,187.216157
181.776642,40.428635,182.851022
174.961492,37.367903,199.225901
178.511351,30.585337,201.986060
178.774923,32.769992,198.499322
180.589512,28.770447,200.450518
175.742171,26.249109,212.859395
177.601754,25.134902,210.760156
178.524553,26.448901,207.331570
173.576012,21.827526,223.042445
175.139732,24.250862,216.696693
177.900627,21.332393,215.206972
174.764015,15.068209,229.545166
175.322897,17.446492,225.381633
174.287490,8.381063,239.477644
174.651958,10.149915,236.293635
175.881833,8.969964,235.154907
173.448317,5.358794,245.261766
189.741470,121.569818,52.213353
190.667532,118.472496,50.425113
194.312125,118.836766,50.635425
195.688717,121.367110,52.096320
190.080091,81.937057,110.421098
190.234050,92.993127,110.938996
191.753685,80.628792,110.114118
193.747148,85.167240,108.601884
194.950789,91.668313,111.012073
184.776105,78.192397,122.357878
186.947025,79.000320,117.203310
188.941486,76.206166,119.427720
186.946720,72.869527,128.556074
187.842421,70.297410,131.572173
188.609712,65.298673,138.206638
186.942212,60.425158,147.528331
199.394948,119.382799,50.950677
202.941544,124.761249,54.055927
206.770383,119.268686,50.884794
207.124732,122.555086,52.782198
203.550599,109.394708,83.561427
205.754541,110.073338,80.417444
206.171401,101.848033,94.297461
206.437491,104.199143,89.988113
206.939287,105.717728,86.910692
206.008978,98.131599,100.879144
207.709454,96.255994,104.806714
198.266811,85.953553,108.429129
199.037186,92.015040,111.973449
202.137075,85.055501,108.350003
203.186549,91.929906,112.643205
206.609495,91.776516,113.046705
206.789024,84.251080,108.574410
210.523553,125.369864,54.407311
210.953496,117.766856,50.017712
219.063945,112.132329,58.995947
219.063945,117.600293,52.373430
219.063945,118.540271,58.146695
219.063960,124.783987,56.198685
219.063945,114.536437,72.016638
219.063975,109.449833,64.889386
219.063989,111.854352,63.448352
219.064049,117.011124,66.806227
210.094265,112.207391,77.068769
211.761407,107.874334,78.919167
211.962305,105.653054,82.550366
217.908792,111.925324,75.233249
218.897752,104.131975,76.636014
219.063945,105.998569,73.219298
211.932324,100.146627,92.114509
211.972512,101.508322,89.720154
215.216629,102.075139,85.849295
219.063855,100.231050,82.953485
219.063930,97.796271,86.686351
210.250728,95.197093,104.581296
211.645983,95.541504,100.372031
214.762531,94.799103,98.856534
214.777834,98.109894,93.108441
218.116976,96.850189,92.316967
219.063945,89.322158,100.152703
219.063960,91.284393,97.297876
209.947459,84.528936,109.175167
212.199650,89.441045,112.461294
218.935333,88.284495,112.575202
218.950323,91.713799,103.286198
219.063945,84.606215,103.274783
219.063945,84.869307,106.705518
219.063945,84.056761,109.957540
219.063945,92.382970,110.602293
82.375208,104.386554,99.617899
82.643015,102.166712,101.760097
82.810142,106.809753,104.461018
86.456241,108.324418,100.637476
89.773271,102.700434,102.759658
91.215171,109.533583,106.836278
91.403825,106.027530,104.841481
91.549551,103.501363,98.203929
91.829087,109.492489,100.505976
94.498155,131.738695,69.434428
97.952401,130.551363,68.462585
99.889546,135.056410,64.173190
101.412154,129.252311,67.643269
102.038454,132.327555,64.486340
100.436002,128.239193,75.254733
102.602225,127.232410,71.744204
102.532241,109.067084,99.111739
94.038533,105.984576,105.059020
95.302531,102.189060,102.999165
95.303772,108.907704,99.980173
97.410874,103.800467,97.672798
98.798260,100.786233,102.579010
101.740420,105.382308,97.696002
101.994514,105.542612,105.683068
102.122731,108.881834,107.611149
107.127901,127.158431,66.216455
107.723094,131.908733,62.470662
109.390873,125.765172,66.530508
110.502723,132.164002,61.511482
112.586867,124.919602,65.189027
106.608502,125.655575,71.274354
107.555017,126.656499,78.908452
109.570212,124.500239,70.792982
111.116580,124.604966,75.073160
111.611444,125.305824,78.962632
111.936919,123.855734,68.318192
105.951845,113.023134,100.252836
106.382254,105.612158,97.138059
107.019126,109.446413,98.614030
109.606087,108.944574,98.076272
110.201254,105.743446,96.692436
115.149229,113.790427,99.184094
106.878724,105.086382,105.837404
107.213765,100.261190,103.079822
110.149484,100.917371,103.607280
114.407077,104.945219,106.140406
115.515779,101.223410,104.087251
117.842622,122.732652,64.243969
118.168674,130.454564,59.632583
118.196599,128.041434,60.088506
122.356251,131.665815,58.870926
122.689355,128.290310,58.686137
126.948572,128.516564,57.681876
117.950122,121.343095,67.941252
118.199907,122.210963,75.008732
118.358511,123.027830,78.911862
118.441753,121.317345,71.364781
121.935036,119.779182,69.081487
122.127458,120.013246,71.069278
123.147003,121.344219,78.575858
127.065334,118.649852,72.394682
123.453494,122.988840,83.153494
126.321412,122.004112,86.634566
127.133421,120.504175,80.815045
117.868505,108.963342,97.251471
118.675329,105.505143,96.026388
122.033041,112.609600,97.939423
122.173972,105.636331,96.187980
122.562822,110.564099,97.694609
126.236502,114.600050,96.641132
126.531038,109.972439,97.453258
118.059784,105.367754,106.618604
122.284803,98.751567,103.019345
122.568633,100.778784,104.254658
123.454056,104.861552,106.679621
130.353160,132.496048,58.521614
134.468928,128.788924,56.639837
135.113887,132.872790,58.739127
138.772510,128.541101,56.305991
135.118603,116.252462,73.776749
128.169715,119.427136,89.598232
129.935179,118.487802,89.653313
130.988646,120.174134,85.671790
132.744856,118.984987,86.362916
134.256460,117.720167,79.061132
134.511292,116.627535,88.800652
134.638779,119.063273,82.314619
137.868933,117.542707,84.086238
138.068191,116.142929,77.730320
138.437412,115.230294,87.724648
129.927877,105.545771,96.620997
131.096519,113.070195,95.848780
133.624904,106.290355,96.817508
134.117514,108.944203,96.614664
134.207382,111.567168,95.609435
138.355501,106.067706,96.362617
127.734389,108.964273,109.732144
129.795901,105.076601,107.275290
130.444482,101.702490,105.317963
134.239621,104.620274,108.477719
136.273585,100.739835,105.533287
134.623550,106.397249,111.934349
137.955755,102.858172,116.989136
138.183020,100.757102,120.831429
138.361379,93.435799,134.528796
138.379566,94.530988,132.472444
138.666160,87.061455,145.596722
138.390101,81.627554,156.127637
138.991825,131.826618,58.135119
146.453596,131.830251,58.137217
146.952755,129.578734,56.837303
138.882704,117.381202,81.039961
146.128781,114.469413,78.810175
146.836363,113.746630,82.893217
147.387489,111.851816,85.606682
148.817226,113.609806,79.394482
149.708420,113.098864,80.985685
138.828747,110.867700,94.119234
145.896539,108.133018,92.872056
146.594666,105.471686,94.503444
148.978397,106.804375,92.452666
141.665242,98.885796,106.266796
139.628902,102.354479,111.227234
140.301913,100.224546,117.256553
142.226666,100.220949,112.282667
142.837949,97.142414,118.430119
143.026039,98.512247,115.061058
143.430188,99.083872,109.437369
146.584458,96.706744,110.152859
148.994811,92.371079,115.963569
138.900190,98.248820,124.212139
142.187178,93.745351,126.465627
146.228559,93.891699,118.153700
146.911822,89.717959,125.202586
147.580050,92.023104,119.416767
150.053426,87.329833,124.308832
139.123886,90.526479,138.314758
140.991971,88.490886,138.550242
142.444059,89.514360,133.982285
144.903384,84.484773,138.629135
145.238645,87.587092,132.344420
147.395059,83.703987,135.609152
147.960052,85.734106,130.933722
149.761557,84.933756,129.365262
150.215640,81.862980,134.237400
141.002170,83.553616,147.431756
142.436817,83.743004,144.488395
143.064834,85.267963,140.611723
143.283188,80.991018,147.794914
147.602126,78.067186,145.291093
148.022659,80.008871,141.165831
149.580188,76.848499,144.150174
149.586901,79.135517,140.104303
139.080502,79.213290,159.113164
141.429469,80.619000,151.900212
141.570858,76.901067,158.431338
142.993062,75.599353,158.019499
143.158972,79.520026,150.610475
147.580825,75.635029,149.614159
147.863291,71.836864,155.808622
149.237305,70.855850,155.215288
149.474114,74.447973,148.530019
138.897083,76.976339,163.609860
140.782937,73.427142,166.134925
141.535066,74.962228,161.973372
142.836027,73.598578,161.888467
143.331006,71.438681,164.704022
145.825460,71.463056,159.961530
147.733681,67.583627,163.454931
149.304427,68.567205,159.103402
150.010012,64.063949,165.694965
139.165781,65.793115,183.312321
139.226794,67.606804,179.906289
141.118496,69.509147,172.569111
141.279608,64.254830,181.479493
141.824268,65.244893,178.701247
143.374666,67.335116,171.856382
143.616840,65.471557,174.745906
143.738366,61.725883,180.958408
146.689407,64.773943,170.109974
146.785743,63.028463,172.930175
149.827398,62.718262,168.229640
149.891808,60.077455,172.480790
141.470030,57.844705,192.561414
141.815319,61.463482,185.342202
143.216006,60.117696,184.754259
143.835045,57.039298,188.917413
147.046372,58.603495,180.096180
147.777050,56.297625,182.792365
149.625398,55.065939,181.483897
149.701334,56.600618,178.841656
139.887839,54.967146,201.073773
141.077228,53.839776,200.355523
142.008103,54.984437,196.321409
142.912604,51.546621,200.301194
143.385000,53.598886,195.807018
146.997362,50.690698,193.646351
147.245340,51.903706,191.088981
147.694014,48.061432,196.857792
149.377472,46.567943,196.061357
149.423674,48.343987,193.093759
150.005556,50.230699,188.754767
140.199259,50.877469,207.681508
141.959674,49.070228,206.860610
142.094575,46.997794,210.090500
143.329203,47.436638,206.609583
144.960746,44.011806,208.919689
146.753288,44.055107,205.254076
147.640869,42.017767,206.957252
148.800723,40.955152,206.449227
148.840636,42.772658,203.263352
140.111498,46.550519,215.435539
141.193494,45.517608,214.642967
141.405828,41.807937,220.788760
143.104769,43.846863,213.218590
143.602892,39.268306,219.974075
146.895908,40.283564,211.413426
146.973721,36.287553,217.795670
148.816459,34.750087,216.498880
140.024572,40.545736,226.282611
141.030915,36.232885,231.455481
141.542248,39.522631,224.448347
143.455699,33.391438,230.465750
143.759519,36.934175,223.650399
146.450400,34.144413,222.536340
147.054091,30.485099,227.531193
148.797348,29.152003,225.861705
149.286449,31.266999,221.358357
140.329644,35.063906,235.423368
140.359699,32.527545,240.018862
141.634829,31.552054,238.430162
141.890458,33.158763,234.799413
143.344238,31.451078,234.096577
144.973322,26.812570,238.238436
147.318795,27.648417,231.548104
148.886606,26.345043,230.215969
140.101269,29.360857,246.634381
140.125535,26.966165,250.957646
141.930490,27.278425,245.510067
142.031364,24.916169,249.418166
143.031619,26.003320,244.781146
143.555447,23.992825,246.919520
146.549448,20.374331,245.725389
147.309541,21.378794,242.044776
139.921255,24.171129,256.825540
141.457304,22.366178,255.861809
141.882263,18.033493,263.038490
142.219431,19.816976,258.639400
143.415116,16.085104,262.123884
143.863104,19.444866,254.399939
143.959254,17.467506,257.863183
146.564990,14.536683,256.254902
146.650903,16.517902,252.284249
147.790357,11.132251,259.352828
148.882739,9.854200,258.734289
144.147329,11.432522,268.946355
144.164793,9.992897,271.834070
147.295475,9.330192,263.997104
147.784181,5.424963,270.450619
144.379757,7.665491,275.950133
144.734315,3.751753,282.844260
147.071875,1.191029,280.783045
148.000404,3.735278,273.055778
149.192147,2.067569,272.716072
149.403758,-2.019144,280.039634
142.726600,4.989019,287.248331
142.767004,0.871130,295.769766
145.768955,-2.663976,292.905515
146.397292,-0.440886,286.312005
147.272296,-1.128704,284.977043
147.304095,-2.641584,287.959393
149.100817,-2.926556,282.777587
149.269037,-7.095228,290.374179
143.292240,-2.912212,301.811925
144.763335,-3.500520,297.798738
144.930526,-6.223878,302.937927
147.818304,-6.809828,294.450171
149.795852,-9.397478,293.184691
150.013685,-13.276426,300.129738
143.724143,-7.238553,309.343021
144.344888,-9.400484,311.645641
145.336948,-10.434436,310.383146
146.236606,-10.337545,307.132812
149.772070,-17.018256,308.187813
150.220580,-15.790032,304.436553
144.111760,-11.395502,317.007120
146.059341,-18.637143,324.977336
146.660693,-16.184448,317.664914
146.960318,-18.515133,321.441665
149.710618,-23.854828,321.965076
150.254197,-20.797294,314.107642
146.362349,-22.522606,332.038825
148.050442,-27.002635,334.740935
149.051912,-27.213079,331.170932
150.068558,-30.134913,333.123091
145.933725,-23.998005,336.853889
147.791028,-28.373995,338.661078
148.881808,-33.134792,343.886555
149.273529,-30.688722,337.330829
146.954484,-32.100881,349.873966
147.565767,-36.011365,355.645019
150.178976,-37.629077,354.440892
150.942728,131.503515,57.948576
151.933506,128.361167,56.134341
154.495314,128.351470,56.128741
155.498534,131.640499,58.027663
150.997504,108.399967,88.371518
159.914136,101.615313,120.387002
159.762367,96.089635,131.625555
161.703266,97.438113,125.453023
161.715030,94.553921,131.112942
160.203658,94.160509,134.530951
161.556162,89.263683,141.164893
160.342864,84.935960,150.819430
159.881279,80.342850,159.583719
160.458848,77.730889,162.988468
160.502292,81.972881,155.761361
159.841448,72.278941,173.376312
161.425940,68.064266,177.429962
160.087160,63.440862,187.559724
159.609086,57.133099,198.721065
159.884438,59.070981,194.972699
160.266600,54.621308,201.482986
161.276668,56.441659,196.641074
161.492675,53.602560,200.679370
159.671634,48.892740,211.758345
159.935012,51.253105,207.426841
160.993986,49.945719,207.404583
161.629058,47.171000,210.524768
159.632310,43.094717,220.887940
159.651696,46.620529,215.426990
161.340497,41.614253,219.660504
161.716461,44.597721,214.302086
159.240663,36.838866,231.523194
159.296319,40.658553,225.404063
158.379316,32.528305,239.975166
158.850371,25.556507,249.666475
160.478718,24.270729,247.918727
156.459845,19.477881,264.313063
156.700544,21.586974,260.558054
158.693723,21.672057,255.884129
159.767680,20.639063,255.005751
160.001501,15.500010,261.873798
161.218032,16.250494,258.004738
155.941955,15.298874,271.508355
156.009696,12.963519,274.668194
157.518275,14.290371,269.334505
157.666124,16.263729,266.171627
157.884888,11.150382,272.952843
159.643732,11.151837,268.928009
159.770846,9.152828,271.474628
155.872948,6.848692,283.805718
156.013198,10.430200,278.255929
157.199978,5.404593,282.674813
157.513380,7.435402,279.075525
159.286506,6.958819,275.696511
159.524895,1.865556,282.363027
155.364096,4.276002,288.853190
157.019056,3.129145,286.327876
158.215508,-0.924613,289.335696
161.038905,-6.819704,290.664262
155.228398,-1.660387,298.033719
157.574303,-8.894401,302.497445
158.320702,-5.662180,295.850748
161.294438,-11.902598,297.156580
161.391347,-9.482025,293.380244
154.041722,-9.380190,312.600061
154.383138,-7.169116,308.255267
156.157076,-11.800671,310.408040
157.618120,-11.119378,305.627289
158.952228,-18.297136,312.589031
159.317925,-13.384793,304.483190
159.466840,-16.724487,308.954275
150.341600,-22.992504,318.170911
153.988540,-15.760934,322.455183
155.635774,-20.299430,324.416733
156.308800,-19.035381,320.560998
156.482130,-16.803636,316.858373
158.598967,-21.371774,317.813030
158.672519,-24.859818,322.325655
160.521164,-24.549519,316.785716
160.528287,-22.470929,313.955437
150.572024,-28.845516,328.863531
152.736395,-18.770163,330.853531
155.416742,-26.306934,333.769804
155.493483,-24.326776,330.781487
157.774612,-27.739762,328.854360
158.049166,-30.272630,331.566929
159.412883,-30.284773,327.604240
150.946542,-32.666900,334.994811
150.959298,-36.521401,342.351165
155.549392,-29.848207,338.542279
157.452270,-31.962415,335.511977
150.871142,-38.315355,345.954162
151.143647,-36.236710,348.971537
151.467986,-41.924963,351.795928
154.493726,-38.888186,345.858683
154.619954,-34.685695,347.877201
154.683508,-32.764255,345.557486
157.583058,-37.612281,343.047578
162.594147,131.745383,58.088218
162.946626,128.379273,56.144794
163.038306,136.173524,60.644807
166.773051,132.548628,58.551972
167.021550,128.599641,56.272024
163.541115,98.567267,119.731285
166.436374,99.148285,116.421616
167.031958,101.899375,115.129542
168.432176,96.042936,117.018484
171.728290,101.160130,113.773310
173.162840,91.993476,116.160087
166.131958,94.358555,123.456123
166.138671,93.062400,126.041368
168.586023,91.805693,124.090353
170.021757,90.361805,124.334772
170.788645,91.110182,121.385992
172.864824,86.996680,125.843851
161.988817,92.491742,134.530469
162.059143,90.429185,138.163288
166.046999,89.479179,133.135559
167.298652,86.883559,135.679298
173.021942,82.653114,133.716425
162.505395,86.039294,145.322882
164.313808,83.101080,147.326151
166.342161,82.858905,144.405307
167.680189,80.285731,146.533987
168.855771,80.857818,143.643609
173.027970,76.986633,143.450890
173.152387,74.370230,147.377869
162.275865,80.771276,154.725681
162.276193,76.554157,161.832818
163.005784,78.046390,158.057576
165.957667,75.551864,157.340140
167.640820,78.234625,150.056060
168.761015,71.864183,158.503282
168.847576,77.111950,149.963512
171.216987,69.749795,157.801630
173.016004,70.629518,153.575341
163.046807,71.448812,168.991688
166.085429,69.703831,166.585860
166.537858,72.940615,160.531209
168.619930,65.741580,168.502821
168.688327,66.745146,166.830724
172.585189,62.363178,167.009318
172.712341,65.235419,162.338137
162.167601,69.951810,173.014710
164.377533,64.752099,177.507789
165.866963,64.749704,174.875877
166.184246,60.790055,180.596279
166.306622,66.183573,171.885764
171.113752,60.776991,171.900341
161.923118,64.193363,182.923530
162.401318,61.627244,186.131785
166.475385,55.789946,187.838310
166.607238,58.207265,183.924216
167.495429,56.808776,184.414400
168.315179,57.991578,181.109902
169.066727,52.081340,188.704132
171.760328,52.916132,182.686837
172.095641,55.226600,178.570907
162.270873,57.608402,192.808979
164.967939,50.834872,198.396510
165.589451,52.799174,194.124890
167.878508,50.594837,193.244727
167.979754,47.545356,197.594799
171.020284,47.332890,192.236627
171.036072,49.746938,188.590578
165.046431,44.192738,208.327877
165.420413,47.778950,202.176980
166.810855,41.985505,208.246277
167.995736,43.334390,203.840258
167.427502,35.122401,216.966012
167.522728,39.072153,211.046238
163.065493,32.857519,229.414452
163.428999,36.658621,222.888999
164.324999,30.281457,230.582898
164.672717,34.009426,224.317227
165.802948,34.572933,221.106864
165.878042,29.762405,228.015525
162.017837,31.404332,233.802735
162.140846,28.812156,237.395151
164.269946,26.386281,236.337495
165.689200,23.563899,237.441363
165.905289,27.434594,231.281909
162.503719,24.296496,243.371367
163.481690,22.699356,243.610190
163.516014,21.024613,245.953612
165.258675,21.401255,241.509961
165.260486,19.119388,244.751561
163.383141,11.401453,259.961021
163.488023,13.415032,256.948657
164.190978,15.459972,252.406238
165.013611,13.112668,253.862664
165.209323,14.521270,251.453665
163.035310,5.415229,269.135077
163.222700,7.498960,265.750778
162.473648,-0.468998,278.670699
162.679553,1.483263,275.526182
161.972806,-2.936552,283.191376
174.641527,132.816396,58.706568
175.644837,128.549319,56.242970
178.907417,132.557997,58.557381
179.053180,129.343234,56.701337
183.347821,129.368560,56.715959
178.299881,118.935083,89.521271
178.328193,120.884077,86.213033
182.604044,123.423548,83.083552
183.404401,118.342733,85.922244
184.431687,116.120956,88.935503
175.860241,115.453811,97.722290
178.080976,112.992534,100.007947
179.353438,116.299115,93.147711
179.710492,114.605566,95.762885
183.617606,112.895403,95.245910
184.418224,109.922466,99.682421
178.388923,109.296954,108.242139
183.316372,107.748685,110.974842
184.615567,107.164488,104.379390
173.939287,105.324628,114.672126
175.603315,94.823803,113.168294
178.580716,101.580581,113.526063
178.666129,95.566794,112.110396
183.697559,97.076387,112.098447
184.692166,101.806774,114.886869
173.684924,83.741092,130.680102
173.614740,78.199460,140.487181
186.512231,133.103269,58.872194
190.137438,132.417464,58.476244
190.391816,127.894324,55.864808
195.226751,132.309394,58.426439
195.779778,129.141946,56.585123
190.271653,124.612470,80.747996
189.830616,116.398444,83.716863
190.533139,122.010055,81.475281
191.941134,114.217838,85.545054
193.834521,119.005148,80.588799
194.927908,111.998699,86.729111
195.602618,113.551141,83.374135
190.054886,110.498311,93.665632
190.355189,112.129457,90.572793
190.449491,108.161907,97.361197
192.074425,109.021954,94.424574
192.167788,111.326030,90.350232
195.069916,108.516625,92.632358
195.279799,106.376044,96.153226
190.053850,104.190310,105.096292
191.190339,103.615770,108.596011
191.911511,105.196499,101.195565
194.541283,102.484462,103.731731
194.671511,102.012704,108.045859
196.001149,101.285464,106.779222
189.529858,105.969759,112.076144
189.957320,96.054602,112.658791
190.211311,100.358864,115.171440
192.812897,106.479961,113.543733
194.160826,99.889881,115.629706
195.435501,95.240322,113.200608
199.428744,129.680979,56.896334
200.233109,132.592316,59.057537
204.694725,134.081890,64.100268
206.707216,131.857890,59.851540
206.988878,132.422195,69.359740
207.432605,128.382503,56.229127
199.676238,126.354958,76.968632
200.119264,122.323554,78.082229
201.732032,121.461022,77.798782
207.127295,124.230541,75.074870
207.618110,128.874648,73.027268
199.206300,116.269483,79.521587
199.321471,112.798354,81.520056
205.999218,114.510134,77.879637
198.106669,107.403562,91.856127
198.499418,104.776174,96.057344
199.445404,108.657585,88.491674
198.195450,100.985832,103.032831
199.497468,99.755134,106.122638
197.986267,95.849116,114.018879
198.817692,102.033458,111.232944
202.504478,101.610900,111.892788
202.924169,98.337354,116.347769
202.983550,102.803775,118.915051
203.068532,96.066652,115.067526
203.205786,105.503454,114.877956
205.338008,97.586636,107.302592
206.235625,100.204691,111.532597
206.478603,97.833059,116.567059
207.023687,94.145518,114.532407
207.195006,97.884859,109.276262
209.994085,131.118450,69.008431
210.607119,131.259452,60.837894
211.490266,128.224269,56.512764
213.430456,129.835673,68.150704
216.135673,129.769463,62.387663
218.548380,127.723279,57.928880
219.064094,123.298186,64.677363
219.064094,126.649958,66.543727
209.528170,128.786504,72.149835
209.993593,122.338591,74.683841
211.374066,118.271573,75.486431
215.090595,124.935032,71.964502
215.426348,114.995921,75.122268
218.078486,119.995473,72.582519
219.063945,122.148296,69.183289
210.794173,115.225840,76.642085
210.508085,100.543943,112.445334
210.820876,98.274375,117.440732
211.486749,97.042990,109.761810
211.807497,94.113676,115.198149
217.082239,102.958312,115.326899
218.132533,97.991132,118.230434
218.795381,95.876140,117.094446
219.063930,96.299082,110.431286
92.063773,138.154726,73.483335
92.063870,141.645233,75.159844
92.063903,134.515650,69.955538
92.063950,142.817009,66.272813
92.063950,145.344350,67.854795
92.130210,138.669300,65.705972
92.063980,135.736935,75.821629
92.064006,137.732158,81.331309
92.064006,140.109259,78.191580
92.201879,132.280764,74.540924
92.270814,133.587161,81.008054
90.605153,119.848933,104.538555
91.164576,115.164985,102.722865
83.500655,115.980322,109.830234
85.286247,123.050598,109.494849
86.117998,113.128405,108.433658
86.283795,117.744771,106.117529
86.672743,115.476647,104.581497
87.933151,123.156242,108.011996
90.588847,115.311494,110.089648
94.371691,136.212183,65.731891
95.040474,141.553231,64.839641
95.407596,146.036818,66.339382
98.582476,146.662139,66.700411
102.062143,143.092744,64.658416
94.563219,130.365306,73.103158
94.607815,130.840883,78.167241
94.831509,131.696824,82.343750
102.454476,128.126202,77.814718
93.994155,132.908295,86.516054
94.787787,132.977977,88.024595
99.223755,132.696158,90.072037
99.531071,130.977909,86.200927
99.932626,129.576413,97.162866
100.184656,131.845924,93.021017
93.259562,116.244082,102.991715
93.888405,122.744689,104.972864
95.263766,119.195831,104.046324
99.080395,124.702991,103.245967
101.229034,115.883938,102.149765
101.466626,119.964187,103.213161
103.240940,122.512153,102.380687
94.020217,111.922359,108.459094
94.447419,115.719861,110.673401
94.858756,119.043221,112.614636
99.704643,115.098955,110.889015
102.711323,118.730297,113.322412
106.133438,137.795138,62.456551
106.196351,142.699267,64.412446
110.363692,145.953647,66.291363
110.508650,142.455689,64.271816
111.809790,139.284825,62.463522
107.171196,127.513714,82.175142
106.932074,127.103457,95.213845
107.031520,128.876491,85.996489
107.124693,129.432080,90.804089
109.887875,128.545788,87.426532
111.162998,126.633777,84.243471
111.273072,125.612104,93.931376
111.423917,127.607638,90.293036
105.665538,119.055134,102.103659
106.287215,122.562086,101.099650
111.697327,117.954473,100.342125
112.949311,121.414267,98.477326
105.900224,115.107106,111.530891
106.335099,119.102813,113.841065
107.137944,112.529950,110.114345
109.995104,115.058646,111.701298
111.527472,111.447325,109.706544
115.316190,111.435308,109.907321
118.564766,139.423516,62.521191
118.647486,141.887220,63.943611
118.868332,146.750685,66.751533
122.896027,146.297992,66.490171
123.002361,141.463073,63.698728
123.394135,138.291199,61.867447
126.550745,142.320576,64.193809
116.241835,126.131123,87.819206
116.548523,123.743247,92.470710
118.370894,124.765482,89.133082
118.667833,124.914689,84.467405
122.903388,122.752895,88.597504
118.428953,120.641569,95.896478
118.610277,116.954449,98.193031
121.507004,119.767928,94.791506
122.445691,117.630832,96.351396
119.470466,115.451510,112.544541
123.281989,116.964370,116.291800
123.563707,114.596438,113.255238
125.097572,110.686359,110.328945
124.518431,116.889684,119.957012
126.761891,111.153753,126.907590
126.990333,114.312507,119.559652
126.923989,109.584962,129.457431
127.051119,105.514179,136.752612
127.165198,103.303617,140.581881
127.224553,99.523289,147.551914
126.763910,95.730973,155.914841
126.982324,93.527682,159.713276
130.496196,139.231454,62.410304
134.740702,138.996497,62.274651
135.438904,142.823508,64.484176
138.175420,142.854821,64.502255
129.269369,111.557300,114.819951
129.805892,111.348440,118.649089
131.681513,109.609529,117.071847
132.478661,105.772408,123.608947
134.743996,106.796436,115.377608
135.012142,103.337511,122.762495
128.865428,104.039068,135.348417
130.421966,105.639163,128.690181
130.516160,106.821080,126.258069
132.519558,102.966251,128.893500
133.820913,102.689279,126.607217
134.807847,99.508495,130.600363
130.830414,97.624800,142.757731
131.422959,98.992076,138.846345
134.573661,96.666846,136.402484
135.093070,94.290125,139.716733
127.615388,97.393567,150.651495
131.111216,94.160869,148.576967
131.301656,91.187581,153.777501
132.798418,92.516026,147.822772
135.300368,87.820432,151.216748
135.417856,90.018738,146.945074
127.719890,90.097810,164.628520
129.791222,87.073211,165.396678
131.128881,88.602707,159.108501
132.890500,83.854977,164.027119
134.615116,86.145723,155.823792
135.391853,82.069439,161.839686
127.810005,85.587594,173.218388
128.156881,87.003742,169.537350
130.041897,80.384314,177.689903
132.129274,83.176509,167.132886
132.859975,78.723762,173.852555
135.126926,75.394130,174.863552
135.212280,77.075362,171.457958
135.937713,79.862798,164.736292
137.715362,75.212245,169.361725
127.866469,77.107622,189.864129
128.381468,80.021795,182.827105
132.614076,72.034125,187.166524
133.504808,75.943412,177.634568
133.895695,73.683671,180.948545
135.137744,71.495589,182.093770
137.427732,72.929892,174.145304
128.591738,72.304635,197.432381
134.158715,68.614221,189.816738
135.155037,69.025372,186.567398
135.369651,67.345569,189.220109
137.513801,65.240951,188.011287
133.401520,63.185318,201.850540
133.489482,61.620668,204.577132
134.029127,64.308727,198.136015
135.897249,58.724074,203.751853
136.138908,62.318966,196.696456
138.072438,60.948745,194.564500
138.260290,59.005333,197.602629
133.932851,55.142244,215.469461
134.295702,56.839549,211.463302
136.179298,54.909184,210.193139
136.560641,52.362533,213.809121
138.423197,50.601720,212.288902
134.015307,52.866858,219.558277
134.402081,48.866696,226.076308
131.449200,47.267843,237.734979
134.107344,47.036117,230.214064
134.424865,43.796484,235.515984
138.550967,38.780211,233.320482
131.525948,41.498909,249.224499
134.814053,40.916023,239.914258
135.316968,38.265914,243.588183
131.641038,39.489956,252.812678
132.034331,35.157718,260.164089
134.724714,32.166986,257.166372
135.052882,35.628129,249.583360
135.294452,33.138162,253.616236
132.629491,31.737697,265.334798
133.179351,28.762508,269.593192
135.092713,28.388660,263.894951
135.587133,25.736854,267.750765
137.169555,23.396800,267.130093
133.905977,22.846906,280.014120
134.297780,23.908617,275.973789
135.381549,21.141873,278.099577
135.787569,22.426059,273.842187
137.325346,20.091807,273.414480
137.558743,17.776181,277.615340
138.546236,16.533702,276.782883
134.970776,16.528665,290.498380
136.231184,15.005302,289.019121
136.706322,15.908686,285.015377
137.152754,13.645390,288.511479
137.529328,15.093939,283.629776
135.316394,14.309289,294.294591
135.528482,11.559073,299.861888
138.229385,10.601347,291.236503
138.261899,7.689301,297.630151
135.537959,10.020030,303.323266
135.605119,8.113572,307.359260
138.775400,5.142191,301.279025
135.898322,4.219628,315.249296
136.150956,2.367103,318.581613
136.470973,0.115360,322.570810
137.237556,1.739516,315.209468
137.830272,-1.722398,320.662159
138.258747,-7.052391,331.630350
138.449669,-5.471834,326.864057
139.905073,139.085759,62.326187
143.494300,143.060878,64.621222
147.070594,146.132694,66.394736
147.227734,138.778516,62.148799
150.221504,146.112821,66.383262
150.109820,131.546679,92.777027
150.076404,127.890402,99.141519
146.617539,110.768800,127.079570
147.210002,114.598264,121.351885
146.604642,107.155844,134.250179
146.838687,108.501600,131.180984
146.514117,103.544936,141.210710
147.149458,101.219510,144.371904
146.656870,95.932648,155.072496
147.483550,97.387176,150.818251
148.945450,90.846255,160.545406
148.135133,82.867110,176.110526
148.861803,80.975330,178.202364
146.488324,82.441561,180.203578
147.151246,66.030813,208.221115
148.112140,69.747042,199.853153
149.268843,66.154921,203.599866
149.554826,61.870098,210.575301
139.054738,43.657831,223.219851
148.489423,53.055102,228.089895
149.420805,56.087967,220.549476
148.902304,50.760541,231.012215
149.266019,48.353960,234.102765
148.979269,42.575536,244.795088
148.105301,36.972018,256.172620
148.909285,34.351809,258.745582
138.931937,21.746946,264.624915
140.096560,21.848356,260.952278
148.109942,30.807006,266.035462
148.136660,28.472029,269.886477
140.203617,17.730764,268.663842
139.364503,14.290530,278.840484
139.829948,10.419972,285.541433
150.159478,12.752658,289.409908
140.252396,7.837145,289.763994
140.783548,5.413573,293.245059
146.732241,12.903961,298.067589
149.905830,7.541987,297.926806
150.132380,11.197209,291.809920
139.963239,1.423579,304.889717
141.775034,-1.166579,303.617971
141.813002,0.429475,300.127807
149.684906,3.265307,305.438155
150.064379,5.356577,301.144774
139.301866,-0.730738,312.459613
139.556303,-3.059473,316.711148
141.516842,-4.140421,311.194188
141.921542,-6.304473,314.457970
147.957086,-2.986563,320.475946
148.007422,1.608805,312.672491
149.998322,-3.382116,315.085935
139.491908,-5.883641,323.376153
139.881290,-7.708219,325.938447
140.219748,-10.268384,330.374064
142.177537,-9.871533,321.509924
142.225139,-11.367603,324.657663
143.971562,-14.078385,323.331658
144.051343,-15.322731,325.673252
147.827573,-8.593459,329.847672
147.966496,-7.043795,326.682491
148.989834,-10.606900,329.458638
149.237431,-6.711789,322.522682
149.341568,-8.913244,325.606021
138.924308,-11.297426,339.108419
139.077916,-13.043515,342.782858
141.667366,-15.179178,335.415139
142.207496,-17.914935,339.685921
144.626997,-20.235178,333.975942
146.369457,-12.827182,341.874859
148.872956,-16.967731,340.272742
149.150744,-15.528685,336.830992
139.991089,-18.772100,352.784317
139.997579,-17.031763,348.168224
141.764968,-19.046385,344.218887
141.884923,-21.777066,350.336057
143.883146,-22.538321,342.530908
147.670395,-19.533353,348.904977
148.330301,-18.637125,344.759073
148.659736,-22.561430,350.369456
140.393711,-21.208661,357.118751
142.514772,-24.276322,353.367423
143.460154,-20.367574,357.408407
144.843995,-28.457615,360.085948
145.359985,-28.170539,348.493953
146.517574,-28.035187,353.709854
146.780446,-31.595248,357.516597
146.821424,-20.102282,352.866675
147.814467,-24.884988,354.170041
149.362050,-25.598349,353.046079
150.404364,139.184385,62.383127
151.238069,142.534931,64.317567
154.656753,142.057764,64.042073
154.936731,146.230009,66.450921
157.592520,139.041664,62.300728
150.724567,134.182459,90.522593
155.002340,127.523001,95.391601
156.749628,129.330295,90.855380
150.507278,124.022973,105.455862
151.225291,124.635991,103.754719
155.979432,123.204543,102.000624
156.662687,121.183514,104.892810
154.156521,120.912002,109.303753
155.471444,121.109997,112.933660
159.083925,118.631983,110.537751
151.218824,114.630310,119.043370
151.556782,117.565927,118.742778
151.593566,112.916923,119.312293
155.658573,111.879159,117.757945
155.912764,116.378702,117.920001
157.464049,106.427238,118.497404
158.462964,113.937246,117.185939
161.060467,116.058950,117.973610
150.550611,106.112404,128.828276
150.682866,103.895684,132.918176
151.246801,106.993883,125.665288
153.966069,99.994884,134.531530
157.242916,102.426396,123.537376
157.345488,101.032382,126.243882
158.049278,98.794543,129.396944
150.783844,100.474574,139.246030
151.998020,97.530877,142.566550
153.831266,98.027971,138.430760
154.084585,94.516732,144.435500
157.569356,95.332116,136.898628
158.218600,93.076253,139.924642
151.155963,91.998076,154.267129
151.418976,94.308141,149.454254
153.666384,90.747419,152.048709
154.024958,92.789269,147.630672
158.071413,87.409098,150.315657
158.378474,88.923678,147.141164
151.110321,90.505926,157.215360
151.287324,86.208145,164.542704
154.363773,86.630971,158.228447
155.513152,83.255405,162.092351
156.354382,86.200839,155.382145
157.921970,81.112062,161.644862
150.897875,85.017441,167.344713
151.780210,80.136564,174.172194
155.421540,77.687129,171.915209
157.331675,76.321806,170.883314
157.414518,79.681773,164.958552
159.521900,74.699025,169.830809
151.281692,77.093316,180.636434
151.362866,78.674178,177.510825
153.959058,74.442488,180.247551
154.161483,75.956848,177.129557
157.727442,73.242568,175.485228
157.744825,71.214354,178.873102
158.426895,67.308765,184.180447
151.433296,70.955468,190.897457
151.563994,72.555600,187.957653
153.622292,68.444947,191.099888
155.027881,68.991226,187.589290
157.383904,63.630639,192.299545
157.405220,65.439959,189.207898
159.360364,65.862196,184.908195
151.136242,64.583407,202.626291
151.505023,62.460876,205.444122
152.136862,65.785096,198.709826
153.654605,61.010885,203.727121
154.086634,62.823232,199.887557
155.396595,63.179587,196.781570
157.387621,59.657577,198.803645
158.111952,56.826843,202.110958
151.463195,57.993602,213.389239
152.050838,55.652965,216.021355
154.381521,55.444140,211.721653
157.164439,53.102367,209.960772
157.547973,51.050348,212.522348
150.954820,54.345486,220.326465
151.495702,50.984492,224.962014
153.794504,49.775528,222.097133
156.881623,45.920606,222.185028
157.774336,46.999100,218.646437
151.541747,43.863669,236.539495
151.961334,47.317231,230.141532
154.041581,45.595700,228.557788
155.726343,40.272972,233.557254
156.824730,43.097994,226.720868
151.058122,42.129493,240.712605
151.904769,39.698333,242.922331
156.953878,37.179555,235.912535
151.653878,33.252664,253.796611
151.892684,35.365138,249.798965
154.983870,32.419109,247.671356
155.504323,29.504395,251.134096
150.953524,29.998860,260.771621
151.358396,25.626304,266.511984
151.412509,26.474847,265.098487
156.422518,24.662141,256.517230
150.609284,21.375462,275.101829
151.086278,18.698061,277.938805
150.772661,16.870954,281.364740
153.561122,9.862352,285.247366
152.250968,4.590872,296.424019
152.439728,8.009462,290.826591
153.769515,4.032954,293.407282
151.941180,2.130295,301.081832
151.980541,0.213951,303.924260
150.364041,-1.813454,311.416495
153.082326,-7.142538,312.066098
153.179511,-5.982594,310.017872
150.963872,-13.913181,328.629250
150.969706,-11.668248,325.163359
151.678137,-10.129438,320.764684
151.036218,-19.665226,337.482781
150.902949,-21.592404,340.997092
150.781713,-26.361497,349.130475
151.192553,-28.636618,351.341522
161.794506,143.220207,64.713211
163.176179,145.649348,66.242046
166.664019,139.006072,62.280179
167.757325,142.052827,64.039224
170.804612,146.059171,68.458190
167.019315,134.628190,85.594572
171.303168,138.030965,83.053791
173.102498,134.977004,83.394330
162.215240,133.484899,87.604656
162.328444,124.898979,93.413094
163.228601,126.931274,89.316754
163.810111,128.681318,87.790292
166.280955,125.285784,89.211494
166.318804,129.990897,86.722085
168.591991,126.343775,86.979499
173.054479,128.645407,85.398957
173.147015,121.878636,89.011059
162.219077,118.761388,104.140348
162.826627,120.465036,100.648467
166.999206,119.512624,98.582474
167.848587,116.554810,102.949427
168.032042,121.072062,94.962717
162.331238,116.962997,108.865160
163.347996,118.535387,114.290876
167.032838,118.559140,115.630745
167.405881,115.299274,112.195157
167.466603,114.996744,106.197707
172.081485,117.126374,115.958137
172.303088,114.932419,114.492332
172.974311,113.169549,104.248616
161.908902,107.941419,116.119130
162.449941,112.621060,116.682014
166.622691,107.054998,115.171104
167.792476,111.672799,116.906172
174.691297,138.685569,62.095137
175.746493,142.648408,65.156663
177.673988,142.597552,65.598383
178.627126,138.784866,62.175293
179.183565,144.069640,71.369520
182.290084,141.995261,66.702155
182.877540,141.832899,74.479076
183.739952,138.871597,62.663717
177.991606,137.125348,81.039442
178.075529,132.153070,82.571884
179.238312,139.065818,79.797617
180.189267,128.916872,82.861587
182.391591,138.571194,78.665682
183.214090,128.735600,81.878921
183.302104,134.515778,80.033701
173.604853,120.044373,91.780595
174.705893,126.043200,84.906057
178.849667,126.053228,84.212517
173.473134,116.518488,98.003806
174.438111,111.161440,108.268749
174.732029,111.705051,111.512595
177.987970,111.089107,112.864485
178.911917,112.530105,114.625926
174.264334,114.910055,120.110375
174.415283,110.911583,117.889480
178.706251,107.764297,117.027236
178.718954,115.512234,121.392264
179.207340,111.315459,119.140269
182.199895,110.293768,119.201725
182.249970,107.273602,117.506270
182.539805,112.371432,115.345971
183.257050,116.181945,118.041090
185.576737,141.457883,71.741574
190.109409,139.836560,69.491289
190.260455,138.523647,64.078364
190.760530,139.423658,67.078689
194.046125,138.115657,70.172673
195.149339,137.009664,63.766755
184.813521,136.343841,78.818217
190.144166,132.690870,78.255201
190.374344,127.117182,79.926219
190.435014,136.515201,76.066507
195.330791,134.262628,75.308694
195.656739,127.967661,77.843687
186.948135,115.555340,118.461169
187.772132,114.799778,122.926117
187.845953,112.586668,116.691589
190.168880,110.543372,120.998300
190.422788,106.583521,118.776449
194.363765,106.831581,119.643943
195.647277,113.566989,123.738877
195.804692,111.790170,117.852013
198.548190,136.332057,64.945338
201.703094,134.335054,70.811293
201.978884,131.437319,74.016950
199.417911,111.403774,118.343439
199.514396,115.365348,121.109044
199.765168,113.088110,124.222462
201.854653,109.044937,122.290738
205.871410,112.823968,125.068488
206.498347,111.368195,119.747792
206.796981,104.665112,120.526636
206.875883,109.407862,123.255022
207.018278,107.293737,116.859777
210.201628,106.346033,116.776693
210.781283,110.057695,119.613030
211.284883,105.007169,121.364269
211.663969,113.176019,122.051614
212.496929,108.863321,123.746750
215.487815,113.457207,123.008996
217.354260,104.517295,121.880401
218.415744,109.886364,120.842642
218.960084,106.732924,118.551753
219.063930,109.135072,124.621548
219.063945,112.462481,126.517653
92.063911,148.846163,79.986255
92.063950,152.529119,71.912047
92.063989,152.358132,81.668638
92.155229,156.394494,73.973747
92.063972,146.629923,91.200478
92.063974,145.310289,85.854059
92.064047,145.223025,82.702363
92.064073,149.873909,84.719994
92.063948,137.462885,95.919250
92.063948,139.724696,92.371794
92.063948,138.622076,101.947251
92.063948,142.608230,95.358354
92.063948,140.823941,98.651564
92.572925,135.977500,90.884328
89.516235,133.193660,111.825770
89.665591,129.611787,109.711511
91.500774,130.938101,106.970242
91.815240,128.230031,104.513803
91.854540,135.144385,107.941748
92.076309,133.583992,102.677506
92.524489,131.126186,101.076473
82.982954,126.136247,115.335966
83.604115,130.450550,117.725231
85.123133,128.466787,112.483905
85.523147,131.908881,114.184170
86.285691,122.668494,113.776806
90.067092,129.792610,117.974740
90.200605,127.282855,116.640993
90.774417,122.741469,114.242761
95.213031,153.249044,70.503363
95.392842,157.152683,72.757130
98.810136,153.050420,70.388687
99.496526,156.578846,72.425825
