60.2522641 92.2947228 220.0424671 -0.83570 -0.54757 0.04202
60.4763106 91.7354226 216.2126750 -0.83218 -0.55302 0.04056
68.6797649 100.9096578 216.1340266 0.76133 0.64822 -0.01372
57.6161817 97.0948189 228.2078266 -0.85003 -0.52426 0.05091
57.6724894 97.5002423 232.9914868 -0.85263 -0.51968 0.05435
58.7522350 96.0452408 236.2447679 -0.85099 -0.52230 0.05490
60.2957420 92.7906111 227.4908572 -0.84072 -0.53953 0.04583
60.9246120 92.6558971 236.3159508 -0.84414 -0.53370 0.05089
66.9768378 103.2012179 227.1488309 0.76948 0.63853 -0.01328
58.3200194 97.7273881 244.6544170 -0.85692 -0.51180 0.06123
59.2367016 96.7575014 249.0459979 -0.85690 -0.51180 0.06156
61.3089874 93.3345780 248.7987578 -0.85082 -0.52230 0.05751
68.2299733 101.7774716 243.9619154 0.78929 0.61402 -0.00242
68.3096200 101.6900465 249.0451932 0.79537 0.60612 -0.00153
57.5596318 100.7652804 256.7835450 -0.86491 -0.49723 0.06847
58.0305494 100.4401669 260.2869570 -0.86540 -0.49623 0.06951
58.6633608 98.3177647 253.0649602 -0.86018 -0.50586 0.06478
60.4148842 96.4006782 260.9611452 -0.85977 -0.50652 0.06508
61.5010858 93.9551219 256.5599382 -0.85498 -0.51509 0.06076
62.8428534 91.5745050 254.6317875 -0.84984 -0.52394 0.05712
68.0781156 102.0072699 255.7143867 0.80252 0.59662 -0.00123
68.2165250 101.7578095 260.2467537 0.80707 0.59045 -0.00062
57.5478934 103.0616611 272.3456025 -0.87223 -0.48319 0.07579
60.0521006 97.5015163 264.3336952 -0.86227 -0.50188 0.06793
60.8081296 97.2627476 271.9098330 -0.86402 -0.49856 0.07007
62.0301664 94.2925438 265.7933235 -0.85849 -0.50883 0.06399
62.5374764 94.5130736 273.5826075 -0.86100 -0.50420 0.06683
68.4437007 101.4483422 265.5986547 0.81247 0.58300 -0.00249
68.5222596 101.4242470 272.5294828 0.81955 0.57298 -0.00534
58.4271215 102.0457894 275.8937478 -0.87165 -0.48420 0.07607
58.4527403 102.6083007 279.5405686 -0.87306 -0.48151 0.07687
61.5860000 96.5868086 276.6476572 -0.86454 -0.49756 0.07078
61.9864538 96.5365171 280.9678316 -0.86613 -0.49490 0.06990
68.1301728 102.0429060 276.7938673 0.82346 0.56731 -0.00853
59.1669530 103.4431681 293.3574617 -0.87849 -0.47173 0.07565
60.2193922 100.5415469 287.3837054 -0.87314 -0.48185 0.07384
60.5996549 101.3787240 297.2563207 -0.87782 -0.47309 0.07492
62.8544688 95.8043784 286.3328755 -0.86721 -0.49323 0.06832
63.4527057 95.5330357 292.2122478 -0.86955 -0.48889 0.06984
63.4895787 96.1096585 296.9613373 -0.87207 -0.48420 0.07106
68.2485774 101.9838899 288.7476683 0.83436 0.55110 -0.01184
61.0942692 102.3501456 308.8623881 -0.88312 -0.46190 0.08219
61.4234768 100.8589417 303.5334647 -0.87957 -0.46937 0.07778
61.4468753 100.5447581 301.8834889 -0.87879 -0.47106 0.07636
63.7742430 96.6357812 304.6032190 -0.87576 -0.47714 0.07339
64.3046722 96.2431133 308.3996773 -0.87695 -0.47478 0.07450
66.2241206 92.1814665 304.1174412 -0.87109 -0.48621 0.06930
62.0524250 101.1255756 312.3515546 -0.88355 -0.46088 0.08326
62.1426180 101.7085835 316.0957098 -0.88630 -0.45474 0.08764
63.1249174 100.8527726 320.7407892 -0.88684 -0.45201 0.09594
65.0036633 97.2235575 320.9981620 -0.88498 -0.45679 0.09025
65.6338632 94.9559137 315.6542480 -0.88014 -0.46801 0.07953
66.3835779 93.0815414 312.7006292 -0.87600 -0.47680 0.07273
63.5266528 100.9371355 324.2949247 -0.88917 -0.44653 0.09999
64.0314817 101.9031927 332.6264620 -0.89830 -0.42686 0.10416
65.1624873 97.7649987 325.2077103 -0.88991 -0.44653 0.09316
66.0229400 97.6821110 333.0234885 -0.89780 -0.43033 0.09364
65.1468039 100.5236432 337.4107778 -0.90207 -0.41991 0.09969
65.1568323 101.8806323 343.0289328 -0.67969 -0.30566 0.66678
66.1322549 98.2833058 336.9047344 -0.90118 -0.42304 0.09435
66.7262003 98.6631289 344.1819549 -0.59721 -0.28036 0.75149
67.4198344 100.1370326 340.9918249 0.91076 0.39646 0.11552
67.8422228 96.5472981 344.3789780 -0.51371 -0.22994 0.82658
68.3795214 100.3706083 337.7756178 0.52584 0.23367 0.81785
69.7955936 92.8635076 2.1126731 -0.08806 0.02416 -0.99582
76.1255473 100.7008180 3.7206472 0.14181 0.32857 -0.93377
76.5074790 97.1897766 2.4363061 -0.01180 0.11975 -0.99273
69.5423856 100.9772345 24.5177429 0.16684 0.53662 0.82717
76.4625594 102.2164747 19.8141523 0.27158 0.69148 0.66940
69.7405860 94.3006426 32.3053673 0.44496 0.88210 0.15461
72.2511262 93.1530818 33.0498852 0.47724 0.87625 0.06649
72.2774938 93.1775048 36.2519994 0.48765 0.86971 -0.07616
76.3174742 91.3788453 36.3241620 0.50426 0.86048 -0.07282
76.5109435 91.3382992 31.9706164 0.46149 0.85035 0.25285
76.8290237 95.5155343 26.9319583 0.16872 0.45474 0.87450
77.6023492 92.9312855 28.3003468 0.30948 0.57549 0.75699
69.1084787 94.5883095 44.5146561 0.42981 0.90185 -0.04400
75.2301142 91.8628499 43.8808538 0.45517 0.88922 -0.04589
69.5132464 100.8258611 59.9615909 0.26832 0.44172 0.85609
69.5871860 97.9855359 52.0744361 0.36304 0.48855 -0.79342
71.9276890 101.5913412 53.7545644 0.21013 0.08350 -0.97410
73.1648877 94.8233232 51.4624417 0.41118 0.66040 -0.62833
74.1706565 101.9863412 54.2061701 0.22162 0.10450 -0.96952
75.6124333 96.5295881 53.8126677 0.32190 0.35596 -0.87731
75.9802163 100.5726159 59.2636019 -0.06017 0.11213 0.99187
76.7330751 91.6502103 49.5774969 0.43575 0.84485 -0.31040
76.8822581 96.5691358 60.1386167 0.12369 0.31659 0.94046
80.1000968 91.9614732 52.9878251 0.40677 0.63439 -0.65733
70.2737048 94.8330015 65.5138195 0.60851 0.73940 0.28809
69.8982924 94.9269384 75.5774975 0.65873 0.75167 -0.03261
72.2182915 92.7625671 73.1869563 0.66028 0.75041 -0.03041
72.4434704 92.8722396 80.1287517 0.65596 0.75419 -0.03021
68.9040422 96.2998122 92.2372937 0.65107 0.75871 -0.02173
68.9272583 96.1834416 88.1344229 0.65228 0.75771 -0.02027
72.1829981 93.3825672 88.5547176 0.65276 0.75721 -0.02329
69.0381452 97.1090198 116.6293547 0.66300 0.74812 -0.02748
72.7977082 93.9343572 120.0789660 0.66604 0.74557 -0.02274
72.8762671 93.6096162 113.0884364 0.66111 0.74990 -0.02410
75.1216784 91.5061310 108.8802963 0.65705 0.75344 -0.02471
75.3231347 91.5812254 115.2809411 0.66119 0.74990 -0.02181
69.4038421 97.3438695 131.5441579 0.67778 0.73474 -0.02783
69.7034150 96.8625993 125.0438243 0.67098 0.74095 -0.02781
71.0132867 95.5728516 121.4151457 0.66737 0.74429 -0.02561
73.0187073 94.0000936 128.1547099 0.67461 0.73785 -0.02174
75.0502944 92.0919329 128.3485740 0.67416 0.73837 -0.01784
75.2546489 91.7166173 120.6522584 0.66589 0.74582 -0.01839
70.8518177 96.3057652 136.8308216 0.68297 0.73004 -0.02437
71.9205737 95.4858214 143.2463974 0.69030 0.72319 -0.02198
73.3296424 94.1630900 143.3929801 0.69064 0.72292 -0.01987
73.3958632 93.9013213 135.8119100 0.68253 0.73056 -0.02068
75.8708492 91.5912017 139.7814602 0.68632 0.72715 -0.01500
69.4254488 98.1836170 153.2258540 0.69847 0.71519 -0.02519
71.6661438 95.8832502 149.2719501 0.69639 0.71734 -0.02164
73.9397928 93.7089324 149.0806341 0.69650 0.71734 -0.01790
75.5847618 92.0602903 148.4711766 0.69548 0.71840 -0.01414
75.6406412 91.9018835 144.6017623 0.69161 0.72213 -0.01459
76.3226822 91.4355516 152.5140256 0.69964 0.71439 -0.01208
69.7172880 98.3774513 164.5500511 0.70834 0.70548 -0.02364
69.9559003 97.9832262 160.2718681 0.70452 0.70927 -0.02406
73.1786713 94.7322175 160.4913622 0.70963 0.70439 -0.01633
73.4871328 94.4973156 164.6145582 0.71452 0.69947 -0.01398
73.4946579 94.3179876 156.5534770 0.70472 0.70927 -0.01730
75.8298561 91.9591188 160.4750752 0.70892 0.70521 -0.01060
69.5717037 98.7006873 172.4267602 0.71757 0.69618 -0.02092
72.1379295 96.1678475 175.9291738 0.72597 0.68759 -0.01364
73.8027990 94.3396613 175.4580140 0.72708 0.68648 -0.00976
73.8326013 94.2901075 172.5057214 0.72365 0.69010 -0.01027
75.6187066 92.4284980 172.1614003 0.72290 0.69093 -0.00638
75.9068280 92.0382962 177.1779507 0.72845 0.68508 -0.00447
70.4705790 98.1746987 188.0807132 0.73586 0.67694 -0.01609
71.9186515 96.5291113 183.4781766 0.73358 0.67948 -0.01322
73.7856701 94.4451541 180.6433201 0.73286 0.68032 -0.00899
73.8573447 94.4848582 187.7800226 0.74040 0.67213 -0.00767
75.2528682 92.9412171 187.8881752 0.74042 0.67213 -0.00454
75.7781193 92.2906920 183.7627888 0.73577 0.67722 -0.00367
70.5901086 98.3727276 199.4120628 0.74773 0.66385 -0.01405
71.7279688 96.9478488 192.9110438 0.74316 0.66900 -0.01226
74.0409046 94.4081098 200.5694807 0.75468 0.65607 -0.00492
74.0512013 94.2962095 192.8808838 0.74605 0.66586 -0.00629
75.6603181 92.4614817 197.2228736 0.75066 0.66069 -0.00173
76.2397274 91.7581469 193.2391375 0.74608 0.66586 -0.00114
70.6459358 98.5008180 210.6552422 0.75963 0.65026 -0.01107
72.3329261 96.4376777 204.8612982 0.75691 0.65346 -0.00842
73.9577785 94.5740193 205.8259249 0.76019 0.64968 -0.00437
74.4064748 94.0328985 208.0042362 0.76244 0.64705 -0.00263
75.5000561 92.7292109 208.4854245 0.76269 0.64676 0.00029
76.2684494 91.8402374 204.4233680 0.75821 0.65201 0.00087
68.8679144 100.8109450 220.4956710 0.76607 0.64266 -0.01116
69.1186488 100.5412266 224.5853990 0.77077 0.63706 -0.00887
72.1260011 96.8462005 215.8593982 0.76762 0.64089 -0.00471
72.4146813 96.5161398 220.3998119 0.77277 0.63469 -0.00178
72.4525973 96.4899659 224.6921957 0.77689 0.62964 0.00030
74.6465325 93.7520862 214.9264067 0.76935 0.63883 0.00118
75.1000643 93.2150185 220.7338810 0.77494 0.63202 0.00505
75.6439492 92.5202295 216.5069729 0.77081 0.63706 0.00414
68.8987970 100.9507552 237.2191250 0.78336 0.62156 -0.00330
69.0574721 100.7129177 233.2266271 0.77952 0.62636 -0.00478
71.9259307 97.0878601 236.9736284 0.78833 0.61523 0.00514
72.3293945 96.6314897 232.2580814 0.78455 0.62006 0.00391
74.0314573 94.3878591 235.3423089 0.78946 0.61372 0.01029
74.0602240 94.3842679 232.8457385 0.78688 0.61704 0.00905
74.1444901 94.3422988 227.8342247 0.78215 0.62306 0.00630
75.0944987 93.0307135 232.6363474 0.78661 0.61735 0.01146
75.5110979 92.4217999 237.2089326 0.79079 0.61190 0.01517
76.2637034 91.5478691 228.9421111 0.78279 0.62216 0.01261
70.6741884 98.6357629 244.0749258 0.79349 0.60856 0.00487
71.8757808 97.0378593 248.6219853 0.80040 0.59939 0.00921
74.2575824 93.8858092 243.6883152 0.79756 0.60307 0.01468
74.3660256 93.6257541 248.0168343 0.80145 0.59785 0.01568
75.1508027 92.6610902 244.3960905 0.79821 0.60215 0.01684
75.1511976 92.5106257 249.0085214 0.80256 0.59632 0.01755
71.4491308 97.4988937 253.5366714 0.80453 0.59385 0.00864
71.8557313 96.7768654 261.6609335 0.81219 0.58331 0.00997
73.6874193 94.3642706 256.0633123 0.80851 0.58828 0.01550
73.7097636 94.1880867 260.3352666 0.81210 0.58331 0.01589
75.7893696 91.2747681 260.7258558 0.81311 0.58175 0.02058
75.8598447 91.4389864 252.4812222 0.80592 0.59169 0.01978
71.6826171 96.9513580 267.8074837 0.81756 0.57581 0.00627
72.0063075 96.4548141 273.2601464 0.82240 0.56889 0.00442
73.3121932 94.5930704 272.3869979 0.82237 0.56889 0.00883
73.6494958 94.2042470 263.9134228 0.81525 0.57894 0.01407
74.9492794 92.2880694 263.8320029 0.81518 0.57894 0.01782
69.3677962 100.2696380 280.2920341 0.82738 0.56161 -0.00603
71.3750720 97.3636359 277.0711482 0.82567 0.56415 0.00095
72.3758861 95.9259048 280.8830738 0.82954 0.55844 0.00255
73.6249015 93.9723030 284.8866880 0.83400 0.55174 0.00480
74.9355033 92.1398848 276.6757905 0.82603 0.56352 0.01077
75.2067566 91.5299207 280.6518674 0.83098 0.55621 0.01052
68.9896420 101.0469794 292.0281589 0.83795 0.54565 -0.01061
71.9059259 96.6379568 288.9250815 0.83655 0.54789 -0.00128
72.1097365 96.3525623 291.9306457 0.83927 0.54372 -0.00161
73.2327402 94.5933163 292.3830450 0.84031 0.54211 0.00129
75.3078982 91.3424939 293.2415903 0.84236 0.53888 0.00678
75.3865838 91.2154913 288.9792621 0.83860 0.54468 0.00836
68.9754039 101.2364328 301.0959327 0.84637 0.53240 -0.01428
69.1189915 101.2197658 308.9801073 0.85356 0.52067 -0.01833
69.4503710 100.5313694 304.8878908 0.85002 0.52655 -0.01434
71.5051591 97.3938629 308.9476228 0.85430 0.51968 -0.01016
72.0450431 96.4819416 299.5457053 0.84607 0.53305 -0.00454
72.1172318 96.3827968 304.3999970 0.85033 0.52622 -0.00620
73.5347345 94.0135494 303.9952815 0.84994 0.52687 -0.00130
74.7481212 91.9685662 299.8169661 0.84607 0.53305 0.00454
74.8934522 91.7678624 309.3417287 0.85456 0.51936 0.00131
75.0789940 91.4364010 304.4478893 0.85014 0.52655 0.00391
68.8748807 101.9226834 315.9265220 0.86062 0.50850 -0.02773
69.3701804 101.4458463 320.7070827 0.86653 0.49790 -0.03491
71.7101023 97.2622335 316.9655204 0.86301 0.50486 -0.01821
72.1843094 96.5430215 320.8748102 0.86774 0.49656 -0.02130
73.5964403 94.0216854 320.6449449 0.86732 0.49756 -0.01364
73.7986267 93.5830325 315.3143525 0.86104 0.50850 -0.00627
75.1727894 91.1638960 314.2838180 0.85969 0.51081 0.00165
69.2520589 101.9637659 325.8450329 0.87348 0.48487 -0.04392
69.8743463 101.7077789 332.1830928 0.86912 0.42894 0.24627
71.8318745 97.4568874 325.2824545 0.87405 0.48487 -0.03052
72.0477551 97.5508168 332.7204883 0.86524 0.42026 0.27338
73.9571154 93.8595533 332.5438499 0.88910 0.44481 0.10793
74.9144256 91.7484388 323.9141107 0.87152 0.49023 -0.01136
69.5138797 92.6824436 344.2980647 -0.55695 -0.27299 0.78440
70.1668933 96.5497270 337.7170265 0.51543 0.22882 0.82582
72.6003572 96.5351909 336.9804621 0.68035 0.32930 0.65474
80.3053603 100.0830531 4.5643756 0.04440 0.42582 -0.90372
81.3927427 97.1295908 3.0966930 0.06932 0.23218 -0.97020
84.7954899 96.9434753 3.7801550 0.24875 0.33617 -0.90836
85.9188363 101.5173644 12.0318197 0.70292 0.70248 -0.11144
90.9985304 99.2284268 12.7475532 0.73099 0.68032 0.05308
80.6897879 103.0880362 15.9895457 0.39602 0.74172 0.54131
80.9733644 96.6766104 23.6589871 0.23581 0.56066 0.79376
81.2908560 100.4530266 19.3936341 0.29779 0.70385 0.64492
84.8575830 99.2124602 19.0153643 0.31688 0.71519 0.62297
84.9918351 95.8419964 22.6197820 0.27127 0.59416 0.75723
85.2598548 101.3590619 15.0841586 0.15944 0.73992 0.65353
86.7711082 91.6690826 26.3004433 0.22028 0.47072 0.85434
80.4839805 97.4435881 59.9492304 -0.10461 0.07280 0.99185
80.7856172 101.3051122 59.8321557 -0.13598 0.04179 0.98983
81.4334452 96.4586809 55.4771647 0.23026 0.10069 -0.96791
81.7271546 100.7828489 55.7214506 0.25132 0.14825 -0.95648
84.4934508 100.2842113 60.4635403 -0.14396 0.03911 0.98881
84.8129392 96.5978876 60.5906472 -0.13905 0.03604 0.98963
84.9171877 101.4414579 56.3971139 0.27395 0.19396 -0.94198
85.6661871 97.2351804 56.4294159 0.23962 0.11137 -0.96446
91.8335840 95.6772119 5.1482590 0.30108 0.48084 -0.82350
93.1590199 97.5964516 8.7435590 0.48548 0.63232 -0.60373
97.6226404 94.8095843 7.2190752 0.45945 0.56636 -0.68420
98.9403129 95.6670865 11.3974186 0.72900 0.65954 -0.18320
99.3137583 92.4058631 5.2021039 0.42305 0.47646 -0.77072
101.1104733 94.7192833 11.5898792 0.73750 0.65896 -0.14787
92.2662914 95.7649648 19.1775020 0.36272 0.70084 0.61421
92.3701003 91.5870145 23.6758012 0.30158 0.55939 0.77210
92.7825272 97.9392007 15.3523395 0.29553 0.72689 0.61992
96.7006534 95.7507342 16.4235085 0.46478 0.71519 0.52199
97.3025411 93.2312384 19.4947962 0.39321 0.68425 0.61416
97.2392261 97.6993889 58.9033440 0.28864 0.23404 -0.92839
97.9789495 100.9915769 59.1816604 0.32104 0.31259 -0.89399
101.3382450 101.2142822 59.8928779 0.33147 0.34194 -0.87932
92.0636952 100.6989777 61.6458133 -0.16897 0.03489 0.98500
92.5769955 96.7734084 61.8557483 -0.17202 0.03029 0.98463
104.8379168 92.4005732 8.7646274 0.63021 0.60795 -0.48294
108.0599129 91.6296989 11.6387056 0.75678 0.64442 -0.10959
104.8282161 92.3540965 15.9562137 0.49220 0.69314 0.52659
103.7326679 96.9922692 60.2243319 0.29871 0.26375 -0.91717
104.3227687 97.3177627 64.0289634 -0.02983 0.31587 0.94833
104.9722210 100.2655029 64.0708432 -0.00861 0.35416 0.93514
107.6118201 97.5740999 61.0743016 0.32057 0.32567 -0.88948
107.8075543 97.2847715 64.6677762 -0.02027 0.32966 0.94388
108.1130058 92.1883732 60.9409697 0.27600 0.23106 -0.93297
108.2453430 100.4716903 64.6754354 0.03832 0.43482 0.89970
109.2181429 100.8110270 61.5505129 0.35338 0.41469 -0.83855
111.4249602 100.3055647 62.0103106 0.35578 0.42963 -0.82996
112.2702807 98.5068753 62.1226951 0.34406 0.40103 -0.84900
112.3748943 92.5460309 65.6614974 -0.12251 0.12964 0.98396
113.0902544 95.8732590 65.6955466 -0.05132 0.26856 0.96189
113.6188358 101.5179381 65.6255111 0.07967 0.50486 0.85952
119.9919283 97.0035866 63.5949820 0.34487 0.44858 -0.82452
120.1188117 100.8752882 66.8507144 0.07173 0.48420 0.87201
124.2476851 101.8553674 64.7612810 0.38267 0.58797 -0.71264
125.9523034 96.5484902 64.7895038 0.35615 0.49723 -0.79115
130.8937669 101.1712998 66.1086813 0.38425 0.64148 -0.66397
131.9572479 100.8487418 68.6819255 0.21127 0.69342 0.68886
132.5671226 97.4954590 68.9478591 0.10601 0.49523 0.86227
132.8821033 96.6335386 66.0606176 0.36101 0.56700 -0.74040
135.5144531 99.2479920 68.3878139 0.57288 0.67891 0.45922
137.3751312 98.3818471 67.7402765 0.56120 0.66155 -0.49739
141.4052248 91.4883539 70.2402219 -0.06150 0.13762 0.98857
141.6962892 96.5026543 68.5074553 0.63545 0.66471 -0.39290
143.6537504 95.6792012 69.3342164 0.67400 0.67383 0.30279
22.0639426 105.5955514 8.6197499 -0.92395 0.19847 -0.32700
22.0639482 114.2896637 3.8947100 -0.82045 0.20599 -0.53332
22.0640432 109.0511158 4.2857332 -0.90011 0.13192 -0.41521
22.0640730 113.1863296 11.7641864 -0.92228 0.38056 -0.06768
22.0639594 112.6906574 20.5435399 -0.88858 0.29578 0.35062
22.0639687 105.6582332 19.5853151 -0.93096 0.20749 0.30044
22.0641121 108.1158891 15.4312821 -0.94607 0.30858 0.09868
22.0642239 113.1241843 16.4737813 -0.87272 0.45235 0.18371
22.0639464 107.7213734 36.1380503 -0.89756 0.43999 -0.02823
22.0639501 110.1184413 31.3589536 -0.91252 0.38445 0.13965
22.0639501 112.0370477 32.2591066 -0.86856 0.49457 0.03166
22.0639538 112.8897443 28.8540572 -0.83729 0.46088 0.29417
22.0639594 109.5595881 27.0770285 -0.88355 0.31914 0.34277
22.0640693 112.8460243 36.0943973 -0.71103 0.70112 -0.05355
17.9854762 109.1898978 49.0318052 -0.58793 -0.03451 -0.80817
20.1540533 112.0282635 46.7774086 -0.72127 0.02991 -0.69200
21.5638727 113.8581410 44.0749601 -0.77188 0.23068 -0.59244
21.5713549 108.6506099 44.3206504 -0.93043 0.01074 -0.36631
12.9428590 113.0168512 50.7869683 -0.16738 -0.04677 -0.98478
14.2506454 108.4987670 54.2472303 -0.10860 0.04141 0.99322
15.4159488 112.7806082 54.1284978 -0.10777 0.05481 0.99266
16.9132575 105.2809432 49.8453751 -0.48224 -0.03374 -0.87539
19.9747700 105.7604849 54.7882095 -0.10138 0.03757 0.99414
21.1074241 113.2520735 54.5731597 -0.10094 0.04983 0.99364
25.1975488 108.9425534 2.1126731 -0.36703 0.00844 -0.93017
25.2633989 112.9183397 2.1126722 -0.36164 0.01496 -0.93220
32.4921422 112.8394306 2.1126731 -0.31507 0.02147 -0.94883
32.5465947 109.3524024 2.1126731 -0.31946 0.01611 -0.94746
25.6017782 114.0479818 31.6552296 0.08759 0.95457 0.28482
26.2231752 114.5634428 29.7413170 0.05742 0.82869 0.55676
29.0208217 112.4143675 32.4564241 0.14914 0.97768 0.14800
33.1276692 113.6497185 27.7064200 -0.03922 0.26153 0.96440
24.5263670 114.6827340 39.2896496 0.40461 0.88640 -0.22492
31.7516141 111.4443541 40.2526408 0.43525 0.87607 -0.20750
33.1709310 112.3481318 43.5687266 0.43184 0.68564 -0.58601
34.0594240 110.1927459 38.8178639 0.40104 0.91483 -0.04744
24.8825233 113.2440865 54.8864119 -0.09639 0.04639 0.99426
25.0386018 108.7631136 55.0963841 -0.09603 0.04064 0.99455
32.4487798 108.8858396 55.8813624 -0.14786 0.00959 0.98896
32.9044871 114.0716150 56.3122034 -0.41932 -0.12622 0.89902
35.9431393 106.4810306 2.1126731 -0.30088 0.01457 -0.95355
36.0712111 113.2892147 2.1541072 -0.27814 0.05251 -0.95911
40.6553261 105.8224142 2.1126731 -0.27073 0.01802 -0.96249
41.1311686 113.9405966 2.6849320 -0.21727 0.18229 -0.95894
43.8447110 113.7598827 23.0574459 0.08477 0.60062 0.79503
36.7892981 113.2100075 27.0760655 0.05652 0.48822 0.87089
37.2080430 108.8052541 32.1278535 0.22007 0.95525 0.19763
40.5222066 111.7246523 26.8837567 0.06744 0.49056 0.86879
41.8347791 106.8126038 31.7205191 0.21790 0.92166 0.32102
43.5693450 108.4424332 27.9903691 0.08378 0.54982 0.83107
45.0075604 105.3185835 36.8336998 0.36970 0.92534 -0.08406
45.1400913 105.2161902 32.6775089 0.31181 0.93946 0.14210
36.9857103 112.5645787 46.0156389 0.37905 0.47342 -0.79511
37.4130122 109.4826311 43.0309661 0.44206 0.80161 -0.40251
37.4538265 108.6898968 39.8035459 0.41568 0.90821 -0.04868
38.1227098 114.7782728 47.2922474 0.27679 0.18153 -0.94363
40.7625623 107.2175652 40.5452512 0.41601 0.90805 -0.04888
41.6838042 107.1047261 42.7532308 0.43607 0.86262 -0.25639
42.5713398 109.7684130 47.0121130 0.38266 0.50982 -0.77049
44.3892665 112.9263490 48.7130731 0.23184 0.11137 -0.96636
44.9466370 105.6943089 43.4907563 0.43546 0.85812 -0.27202
35.4794860 112.2915670 57.4538596 -0.54924 -0.23068 0.80319
36.9617268 114.2444909 59.7532727 -0.76293 -0.35882 0.53776
37.3202264 105.5554077 56.8970144 -0.35362 -0.14483 0.92411
38.0871817 109.2573255 58.2898892 -0.59925 -0.29102 0.74580
40.6162776 108.2143933 60.3804849 -0.73910 -0.41364 0.53164
38.2962264 114.3781468 71.9733387 -0.87090 -0.49089 -0.02372
39.9201997 111.6245762 71.7342123 -0.85634 -0.51608 -0.01872
39.9349406 111.9279191 64.9202392 -0.86815 -0.49557 0.02698
42.7222699 107.4272171 65.3574243 -0.84367 -0.53597 0.03107
38.6010632 113.6591062 76.0953277 -0.86443 -0.50254 -0.01459
38.9192142 113.0174547 81.2005773 -0.85713 -0.51509 -0.00164
41.0034023 109.7639799 75.9497136 -0.84255 -0.53856 -0.00775
41.1557630 109.5665023 73.4589621 -0.84293 -0.53791 -0.01131
41.2924811 109.3509644 83.5460350 -0.83629 -0.54821 0.00866
38.1357558 114.6502346 92.1753570 -0.85945 -0.51048 0.02737
38.5575518 113.7008965 88.7105986 -0.85453 -0.51903 0.01967
39.5887010 112.1529341 89.3565342 -0.84743 -0.53045 0.02178
39.9940237 111.9030267 95.9221646 -0.84503 -0.53338 0.03794
41.0742871 109.8317653 87.9150778 -0.83717 -0.54661 0.01895
42.6967777 107.6933742 94.2391828 -0.82653 -0.56193 0.03298
39.7144072 112.7734557 101.3964862 -0.84938 -0.52589 0.04467
39.8277640 112.9807159 105.0861254 -0.85097 -0.52296 0.04868
42.7009687 108.0757752 100.0717431 -0.82894 -0.55780 0.04136
43.2316288 107.6170802 103.9105281 -0.82773 -0.55939 0.04416
44.9924357 105.0266847 103.7469357 -0.81627 -0.57612 0.04230
39.2319150 115.2897552 116.9513986 -0.86405 -0.49956 0.06207
39.7553705 113.4964079 108.9401990 -0.85370 -0.51804 0.05311
40.7912657 113.0088940 119.6210906 -0.85397 -0.51673 0.06102
41.1289260 112.1488810 116.6330278 -0.84971 -0.52394 0.05908
43.2432853 109.1740876 119.7514832 -0.83812 -0.54243 0.05762
43.6121449 107.5286269 109.2810705 -0.82855 -0.55780 0.04867
43.7729731 107.8553572 115.2561083 -0.83119 -0.55334 0.05427
44.9839197 105.7233885 111.7542312 -0.82114 -0.56857 0.04950
45.1130569 105.8497727 115.3023168 -0.82249 -0.56636 0.05243
41.3485169 113.3288890 129.0364414 -0.85793 -0.50982 0.06362
43.7997617 109.1631055 127.6038885 -0.84045 -0.53856 0.06005
44.2019105 109.0060025 131.6836774 -0.84118 -0.53726 0.06140
45.3140140 106.0854793 120.7351685 -0.82558 -0.56161 0.05485
45.6733033 106.4201742 128.8642138 -0.82966 -0.55525 0.05800
41.1926843 114.0552461 132.6391399 -0.86173 -0.50321 0.06489
41.2081964 114.5379171 136.9671524 -0.86498 -0.49756 0.06514
42.4901061 114.7586778 155.4348320 -0.87080 -0.48755 0.06323
42.4903221 113.8423905 148.7768590 -0.86610 -0.49590 0.06289
43.2115979 112.0444760 143.9417154 -0.85785 -0.51015 0.06196
44.4852151 110.0384295 144.6107626 -0.84999 -0.52328 0.06073
43.7418371 113.7178317 164.1367972 -0.86982 -0.48956 0.06114
43.8442566 113.0472943 160.5934203 -0.86665 -0.49523 0.06059
44.5277616 113.3066416 171.6140211 -0.87083 -0.48788 0.06021
45.2684462 112.5313640 176.3194948 -0.87031 -0.48889 0.05950
45.8267853 113.6180460 192.9874420 -0.87995 -0.47106 0.06152
48.2132174 115.7149971 5.7741110 -0.40338 0.56826 -0.71719
49.1567068 114.0101030 4.5844968 -0.39677 0.47038 -0.78824
52.1294624 113.4784818 5.2804332 -0.37227 0.52557 -0.76498
52.8815500 109.5213667 2.9812090 -0.12385 0.22060 -0.96747
56.8376966 111.6974354 5.6122630 -0.31446 0.53565 -0.78371
49.1023622 113.4465858 20.8499897 0.12644 0.66757 0.73373
52.7205952 113.3328378 19.2199685 0.16790 0.72080 0.67250
53.3670522 114.9336994 16.6405458 0.22622 0.77520 0.58983
55.5022210 108.8018492 22.8046197 0.12686 0.59939 0.79034
56.9151342 113.8340458 15.5722620 -0.36638 0.74837 0.55290
47.3402329 104.2800322 36.5775228 0.37748 0.92196 -0.08659
47.9018502 108.7001935 26.5994184 0.08866 0.49190 0.86613
48.1654964 104.1801050 31.0170930 0.24971 0.88587 0.39101
53.7748002 105.2798033 27.4764746 0.10291 0.46054 0.88165
48.8879383 107.8440696 48.7234630 0.34240 0.41852 -0.84119
48.9650443 104.2073369 45.0373106 0.43467 0.82132 -0.36946
49.0688123 112.6970425 49.6957786 0.22442 0.09573 -0.96978
52.4631776 108.0734283 50.0261560 0.26771 0.21461 -0.93929
52.7420901 113.4400889 59.3675673 0.42542 0.56763 0.70485
53.8992770 113.4698018 50.6917201 0.24778 0.16340 -0.95494
56.8272583 111.2801656 58.8305891 0.33380 0.48319 0.80938
56.8537526 110.6049344 51.1619113 0.23125 0.13230 -0.96386
49.2807925 113.2939830 63.5952801 0.63806 0.73940 0.21486
50.2959043 113.6628464 61.1427948 0.54972 0.67609 0.49061
51.0085896 111.4507243 65.5422434 0.66288 0.74685 0.05299
51.2448065 111.1796424 71.0943192 0.65924 0.75192 0.00379
52.8996810 109.6806675 68.4062168 0.66179 0.74964 0.00838
57.2255030 106.0219035 65.1968718 0.65012 0.74608 0.14390
48.7848073 113.3111715 83.2064375 0.64647 0.76294 -0.00149
48.8447659 113.3326888 75.2497241 0.65486 0.75570 0.00804
48.9106663 113.2524461 72.7710575 0.65719 0.75369 0.00756
50.8235022 111.5732864 83.0559656 0.64763 0.76195 -0.00397
52.9139861 109.7975001 83.2246020 0.64848 0.76120 -0.00671
53.0697778 109.6698269 76.2052760 0.65549 0.75520 -0.00151
54.9152233 108.0017835 72.8359222 0.65891 0.75218 -0.00783
56.9257848 106.3100770 77.0033151 0.65569 0.75495 -0.01107
57.0763387 106.2378287 81.2455267 0.65194 0.75821 -0.00975
57.1500771 106.0489342 72.9487613 0.65940 0.75167 -0.01340
48.3673662 113.7553528 91.5028453 0.64441 0.76443 -0.01978
48.9354953 113.2147387 88.6860639 0.64456 0.76443 -0.01409
51.1524603 111.4198491 91.7904973 0.64555 0.76344 -0.02080
52.8651401 109.9179760 88.3571655 0.64691 0.76244 -0.01365
53.9161488 109.2410013 95.6033096 0.64764 0.76145 -0.02759
56.8824485 106.5179855 88.2831886 0.64888 0.76070 -0.01693
57.1505874 106.3988507 92.6364735 0.64838 0.76095 -0.02338
48.9259325 113.6017442 99.5124951 0.64611 0.76220 -0.03994
49.1210110 113.7736961 105.1655486 0.64969 0.75896 -0.04342
50.9814210 111.8531823 99.2537439 0.64679 0.76170 -0.03849
51.4516830 111.7718965 104.5898050 0.65037 0.75846 -0.04196
53.8772270 109.4630286 100.2024263 0.64858 0.76021 -0.03785
53.9237931 109.8948941 108.1147864 0.65379 0.75545 -0.04294
49.4453609 113.7298122 108.4058657 0.65124 0.75746 -0.04628
49.8112552 114.2898425 120.0413629 0.65547 0.75319 -0.05543
50.2097085 113.6064753 115.5850813 0.65390 0.75470 -0.05328
51.2426607 112.7915978 116.6206449 0.65508 0.75369 -0.05312
52.1002822 111.6719171 111.5561202 0.65439 0.75470 -0.04701
56.7274466 107.5960100 109.2551872 0.65558 0.75394 -0.04230
49.7060455 115.0387004 128.6019087 0.65975 0.74939 -0.05605
50.2008274 114.8410365 131.4208657 0.66178 0.74761 -0.05597
51.6144335 112.7369180 120.1086491 0.65705 0.75192 -0.05379
52.9760942 112.1564209 127.8643310 0.66203 0.74761 -0.05292
57.0517816 108.6091697 128.5663992 0.66760 0.74301 -0.04744
45.8891280 106.8911105 136.3125741 -0.83398 -0.54854 0.05991
46.0173674 106.3592508 133.0016255 -0.83086 -0.55334 0.05905
48.3990870 103.6712155 139.9298757 -0.82427 -0.56352 0.05508
52.8304763 112.8794700 135.9640211 0.66661 0.74352 -0.05303
53.1619489 112.3802960 132.8666657 0.66490 0.74506 -0.05289
48.0777360 104.9779356 147.9471773 -0.83263 -0.55110 0.05500
53.3099435 113.1877825 147.0413357 0.67551 0.73552 -0.05191
53.3547848 112.9260138 143.8353956 0.67324 0.73759 -0.05200
46.7344858 107.7134386 155.6087732 -0.84542 -0.53110 0.05650
47.0121093 108.3898842 165.7986492 -0.85199 -0.52067 0.05497
47.2883098 107.3466614 159.6654654 -0.84591 -0.53045 0.05523
51.5835695 115.7771498 160.8642638 0.68408 0.72741 -0.05389
51.9116111 115.7255247 164.6389365 0.68722 0.72451 -0.05308
53.6038689 114.1213626 164.6611094 0.68878 0.72319 -0.05081
54.0199615 113.3999154 159.8131657 0.68603 0.72583 -0.05034
55.0743341 112.1315435 155.6907296 0.68473 0.72715 -0.04893
47.1337102 109.2012003 175.9973615 -0.85930 -0.50850 0.05511
47.1343882 108.8376492 172.7303863 -0.85658 -0.51312 0.05460
53.8022630 114.8197725 177.4577945 0.69953 0.71278 -0.05106
54.1079268 114.1761020 172.6358682 0.69576 0.71653 -0.04998
55.9449010 112.4690771 173.8344729 0.69979 0.71278 -0.04730
56.2615059 112.3085320 175.9072840 0.70199 0.71062 -0.04718
45.9429026 112.9167750 188.9794618 -0.87660 -0.47747 0.05993
46.5356112 111.1195460 183.6343110 -0.86890 -0.49156 0.05807
47.9796715 108.2836762 180.3847253 -0.85875 -0.50949 0.05441
48.7992503 107.8055501 188.3702278 -0.86130 -0.50519 0.05424
54.2260669 114.9980798 185.7226193 0.70739 0.70493 -0.05163
46.8726419 112.4593019 199.5441616 -0.87908 -0.47275 0.06112
48.1495783 109.4151363 193.4550852 -0.86803 -0.49323 0.05701
48.6842766 108.9494526 197.4638253 -0.86819 -0.49290 0.05735
50.5029373 105.4650694 193.5933083 -0.85690 -0.51279 0.05264
50.7106334 105.4657698 197.3122805 -0.85841 -0.51015 0.05373
54.9844280 115.4375896 202.0494640 0.72410 0.68787 -0.05006
55.9880771 113.6403605 191.8147802 0.71599 0.69645 -0.04812
56.6877127 113.5184839 199.7494549 0.72461 0.68759 -0.04647
46.6598533 114.3130958 209.7962648 -0.88704 -0.45747 0.06235
47.2624004 112.3242453 204.1364908 -0.88013 -0.47072 0.06153
48.7491637 109.7499579 205.4222673 -0.87350 -0.48319 0.05938
49.3388288 109.1794595 209.2473209 -0.87299 -0.48420 0.05868
50.6290421 106.4669490 205.1668316 -0.86446 -0.49956 0.05610
51.8986657 104.6739146 208.6189240 -0.86072 -0.50619 0.05420
57.2252423 113.1854951 203.6126107 0.72943 0.68257 -0.04509
47.2868308 113.8389111 215.6009227 -0.88708 -0.45747 0.06167
48.5108569 112.0387390 220.8568156 -0.88360 -0.46428 0.06075
49.6662520 109.5291302 217.0086056 -0.87612 -0.47848 0.05889
49.6972203 109.9457964 221.1985588 -0.87831 -0.47444 0.05903
50.7529378 107.7155471 217.9548293 -0.87178 -0.48655 0.05725
51.2929708 107.6415777 225.9378284 -0.87354 -0.48319 0.05871
52.0946905 105.5379659 220.2285677 -0.86696 -0.49523 0.05593
48.5290289 114.1271442 235.6252074 -0.89004 -0.45098 0.06668
48.7330854 113.1241098 231.6488922 -0.88721 -0.45679 0.06476
48.8385446 112.3435646 227.8021723 -0.88505 -0.46122 0.06290
50.5814813 110.2728546 235.8086854 -0.88079 -0.46903 0.06497
51.9565307 107.9304144 237.3919040 -0.87588 -0.47815 0.06495
52.5924377 106.0527936 231.8059355 -0.87041 -0.48855 0.06085
49.1543896 113.6805564 241.3513809 -0.88914 -0.45235 0.06936
49.2861420 114.6357134 248.5076785 -0.89059 -0.44893 0.07291
50.7254787 111.7399931 247.7355748 -0.88456 -0.46088 0.07173
52.8015122 107.9369187 248.0747998 -0.87637 -0.47646 0.07039
53.6241159 105.9633121 245.3439832 -0.87228 -0.48420 0.06838
54.8047796 103.9103866 245.6246614 -0.86844 -0.49123 0.06707
55.0213717 104.1495204 249.7682273 -0.86925 -0.48956 0.06881
49.7732647 114.3535823 252.7717352 -0.88973 -0.45030 0.07490
51.1092544 111.7614359 252.2694468 -0.88436 -0.46088 0.07411
51.1555560 112.8361449 259.5862448 -0.88673 -0.45577 0.07739
53.0679151 108.1123948 252.4711490 -0.87712 -0.47478 0.07248
53.4470826 108.5231602 259.6711218 -0.87831 -0.47207 0.07564
55.8674634 103.7864834 257.3094666 -0.86978 -0.48822 0.07154
51.9252978 112.1322736 263.8079226 -0.88527 -0.45850 0.07795
51.9600995 113.5478467 272.1705139 -0.88788 -0.45303 0.08023
53.0696176 110.1066098 264.5714581 -0.88142 -0.46598 0.07727
54.7381900 107.8566164 270.2102363 -0.87864 -0.47106 0.07804
56.3906170 105.2260846 272.6995051 -0.87541 -0.47714 0.07742
52.5289066 113.1338775 276.2089372 -0.88796 -0.45269 0.08127
52.8501943 113.4467795 281.2847793 -0.88872 -0.45098 0.08237
54.9297929 108.4912270 276.1448026 -0.88064 -0.46699 0.07992
55.7106733 108.5446328 285.1804197 -0.88218 -0.46394 0.08074
55.7258241 107.8533903 281.2227011 -0.88061 -0.46699 0.08026
56.6173494 105.5940539 277.4254382 -0.87678 -0.47444 0.07855
56.6840656 105.8584228 279.7261477 -0.87765 -0.47275 0.07897
53.3627197 114.5507321 293.0029333 -0.89168 -0.44481 0.08403
53.8132004 112.8823161 288.5503769 -0.88866 -0.45098 0.08305
54.6078943 114.1426861 303.5089672 -0.89206 -0.44275 0.09062
54.6451584 113.5824621 300.9659946 -0.89104 -0.44515 0.08880
55.9747517 112.3005897 308.5214496 -0.89124 -0.44412 0.09192
57.1160242 108.5885018 300.5448282 -0.88559 -0.45679 0.08414
55.2536845 115.4274866 315.7860637 -0.89565 -0.43171 0.10698
55.7009019 115.6591326 320.6274211 -0.89590 -0.42825 0.11818
56.0261011 113.9891073 316.5349662 -0.89395 -0.43517 0.10713
56.7892827 113.3181751 320.4284906 -0.89326 -0.43448 0.11539
57.4224703 109.8141149 4.2123133 -0.31423 0.42409 -0.84936
59.6613735 113.1503209 11.3361655 -0.54195 0.74634 -0.38636
63.9735907 111.2402081 11.4395162 -0.48029 0.73889 -0.47262
64.5297468 107.6847836 5.0148657 -0.19013 0.49956 -0.84516
64.9398938 109.7366065 7.8534782 -0.19374 0.65230 -0.73278
57.5762354 110.2679744 20.2030670 0.17735 0.68592 0.70573
60.7357845 105.4811254 23.8830950 0.13461 0.56130 0.81660
62.6697615 106.7782193 21.5334594 0.18195 0.63942 0.74702
62.8717542 111.2051532 15.5037399 -0.29239 0.74634 0.59791
63.8462901 104.3934450 23.5595200 0.15524 0.57078 0.80629
65.3712898 109.8451614 16.1235966 0.30441 0.76665 0.56532
68.4700012 104.2880490 21.4330163 0.21167 0.64030 0.73838
57.3953241 105.1341221 25.8800965 0.11721 0.50420 0.85560
57.4083850 105.0567925 50.6644286 0.30353 0.31222 -0.90021
60.6194511 114.5581231 57.1816713 -0.03970 0.09382 0.99480
64.3390641 112.2037470 52.6629724 0.27658 0.23814 -0.93102
64.6407828 105.1988378 59.2612401 0.27475 0.43379 0.85811
65.1803166 104.4911966 52.5532812 0.20942 0.08083 -0.97448
68.5610175 113.4174839 53.5494462 0.30332 0.30420 -0.90303
68.7103271 113.8527021 57.8441657 -0.04428 0.15886 0.98631
58.4330000 106.8672761 61.4807270 0.51395 0.65230 0.55710
59.4989918 103.9670855 72.5315660 0.65992 0.75117 -0.01620
59.7119667 104.0738672 64.4075423 0.62399 0.73656 0.26099
59.0125769 104.4832692 76.3898715 0.65675 0.75394 -0.01562
59.8980933 103.7880778 80.6048214 0.65331 0.75696 -0.01428
59.3646541 104.4870690 92.1744257 0.64902 0.76046 -0.02191
59.6726090 104.1244194 87.7724737 0.65002 0.75971 -0.01770
57.4374758 106.7517027 105.1423177 0.65344 0.75596 -0.03939
58.0697544 105.9136242 99.9918580 0.65046 0.75871 -0.03546
60.6247187 104.1160002 107.9650074 0.65591 0.75394 -0.03676
60.7125238 103.8144231 104.3514833 0.65373 0.75596 -0.03413
60.7471913 103.6202461 100.4539654 0.65112 0.75821 -0.03399
58.1579097 107.0119664 119.1871911 0.66186 0.74812 -0.04755
58.2116768 106.7327186 115.7988757 0.66026 0.74964 -0.04565
60.3129156 105.9091687 132.9799742 0.67543 0.73630 -0.04072
61.0395335 105.4480299 136.7830485 0.67921 0.73292 -0.03885
58.9984916 108.2276925 152.2575021 0.68847 0.72398 -0.04309
59.2110530 107.6101735 144.7322369 0.68350 0.72873 -0.04225
59.7615950 107.3007807 148.2124180 0.68661 0.72583 -0.04165
62.0002374 105.3236574 151.7365724 0.69127 0.72160 -0.03795
57.4563146 110.4337648 164.3126011 0.69472 0.71787 -0.04509
59.1480955 108.7472811 163.6158824 0.69708 0.71573 -0.04256
59.9635541 107.8037173 160.8895063 0.69632 0.71653 -0.04144
61.5462512 105.9655622 155.7263136 0.69373 0.71920 -0.03862
63.9277995 103.6772951 156.3561410 0.69642 0.71680 -0.03448
59.6741959 108.9158580 175.7340729 0.70724 0.70575 -0.04154
60.4069084 107.9791337 172.2680032 0.70541 0.70765 -0.04035
62.5795200 105.8554873 173.3440310 0.70862 0.70466 -0.03617
62.6381934 105.4995134 167.9000258 0.70428 0.70900 -0.03622
62.6411736 105.9838235 176.8302917 0.71188 0.70139 -0.03579
58.1546873 110.7576340 180.9064895 0.70950 0.70330 -0.04441
58.6789027 110.6094271 187.9386753 0.71659 0.69618 -0.04292
60.6843680 108.6399779 189.4028932 0.72110 0.69176 -0.03848
60.7658140 108.0840081 180.7955652 0.71333 0.69975 -0.03888
62.6054183 106.2183976 180.4703772 0.71511 0.69810 -0.03568
64.7275820 104.3639705 189.4544363 0.72734 0.68564 -0.02958
60.1343624 109.6725240 197.1777081 0.72822 0.68425 -0.03885
60.3952184 109.1934666 193.6801821 0.72506 0.68759 -0.03869
62.6862347 107.0371866 198.7652183 0.73374 0.67863 -0.03294
63.5875985 105.7466120 192.6565319 0.72883 0.68397 -0.03160
58.8628724 111.6809547 208.0581933 0.73700 0.67468 -0.04046
60.5278201 109.6531749 204.4219673 0.73613 0.67581 -0.03730
61.4241213 108.9133173 208.8196427 0.74222 0.66928 -0.03418
62.7923086 107.3845029 208.9171708 0.74442 0.66700 -0.03085
65.0414452 104.6947166 204.8480064 0.74381 0.66786 -0.02682
57.9526536 113.2060811 215.8827484 0.74320 0.66786 -0.04023
58.9984730 112.2877076 221.1261839 0.75032 0.66011 -0.03571
60.9266981 109.8758876 216.8780416 0.74945 0.66127 -0.03250
61.0541292 109.9174470 220.7080722 0.75357 0.65665 -0.03065
62.9411340 107.9590321 226.3535708 0.76232 0.64676 -0.02398
63.4832904 107.1923077 222.3498672 0.75907 0.65056 -0.02417
65.0684834 105.1442474 215.9970999 0.75511 0.65520 -0.02288
57.5452372 114.2994538 227.5639474 0.75453 0.65520 -0.03736
57.9090938 114.3928617 236.8015647 0.76540 0.64266 -0.03407
58.2198799 113.8054654 232.2794944 0.76092 0.64793 -0.03446
63.8695881 107.2074398 237.4560535 0.77549 0.63113 -0.01725
64.6569803 106.1209813 231.8165153 0.77086 0.63676 -0.01744
58.4475398 114.0118539 243.3396280 0.77360 0.63291 -0.03117
58.6957596 114.0896901 249.7989535 0.78175 0.62276 -0.03210
63.4203255 108.0345362 248.9325106 0.78769 0.61584 -0.01722
63.6426210 107.6264009 244.6771562 0.78296 0.62186 -0.01622
66.7356476 103.7369743 244.3077415 0.78713 0.61674 -0.00724
66.9373795 103.4809723 249.1112053 0.79302 0.60917 -0.00578
59.8617643 112.7196103 253.5837889 0.78782 0.61523 -0.02871
59.9566624 112.8751710 260.5544031 0.79597 0.60460 -0.02993
61.5844689 110.7374430 260.7878447 0.79848 0.60154 -0.02420
61.7701672 110.1906747 251.7957687 0.78850 0.61463 -0.02238
63.8509095 107.7396795 261.6208494 0.80328 0.59539 -0.01602
64.9865270 106.0974076 253.4843385 0.79527 0.60612 -0.01251
66.7866766 103.7786305 260.9498501 0.80661 0.59107 -0.00495
60.7301630 112.0979935 264.3961012 0.80178 0.59693 -0.02861
60.9947704 112.1057570 272.3899782 0.81285 0.58175 -0.02900
61.7881902 110.6579155 264.9874985 0.80443 0.59354 -0.02438
64.8154318 106.6242978 265.3248608 0.80945 0.58704 -0.01304
65.0344491 106.4530462 272.3707259 0.81722 0.57612 -0.01536
60.3453554 113.2912114 277.4407268 0.81804 0.57424 -0.03264
60.7969649 112.8701344 279.8464000 0.82160 0.56921 -0.03121
62.0260872 110.8368114 275.8282721 0.81873 0.57361 -0.02544
62.1263385 110.9272018 280.9199095 0.82393 0.56605 -0.02687
64.1045868 107.9114452 281.4315557 0.82539 0.56415 -0.02153
64.2311871 107.6695696 277.6999772 0.82196 0.56921 -0.01986
66.9730827 103.7014127 275.8415639 0.82190 0.56952 -0.01135
57.5920418 106.2402353 292.2798991 -0.88094 -0.46665 0.07859
57.7825531 105.1832289 287.7511084 -0.87825 -0.47173 0.07835
60.6687441 113.8705164 292.8247452 0.83473 0.54950 -0.03587
61.3634549 112.5980541 289.0857756 0.83192 0.55397 -0.03192
62.5413507 111.0297889 292.8053737 0.83624 0.54757 -0.02952
62.5759885 110.7381806 288.9888883 0.83248 0.55334 -0.02810
63.5613799 109.4270498 292.3045158 0.83634 0.54757 -0.02631
65.3601959 106.4120531 288.4000540 0.83293 0.55302 -0.02013
58.5274622 106.5425202 303.9357364 -0.88439 -0.45918 0.08368
60.7006699 114.6004274 303.8653135 0.84445 0.53370 -0.04538
61.1127615 113.7474030 300.5523682 0.84222 0.53759 -0.04073
63.9145747 109.4412655 303.7228286 0.84666 0.53110 -0.03314
64.4461513 108.2997173 300.0660837 0.84379 0.53597 -0.02751
64.5304471 108.7436527 308.1702888 0.85084 0.52426 -0.03493
59.0084083 108.0330983 316.7795539 -0.88979 -0.44550 0.09902
60.3782125 104.5311093 313.1467998 -0.88665 -0.45406 0.08767
62.7580062 111.9146347 311.8589520 0.85316 0.51968 -0.04519
62.9859939 112.5006750 320.9835887 0.86297 0.50089 -0.06632
63.2663816 111.5393192 316.4561689 0.85819 0.51048 -0.05405
64.9290308 109.1469526 321.1875856 0.86459 0.49922 -0.05711
66.2222803 106.4919233 316.9197142 0.86046 0.50784 -0.04128
67.0352578 105.1543429 317.4877465 0.86156 0.50619 -0.03868
57.9177924 113.1824180 328.2887340 -0.89565 -0.42617 0.12725
58.4814101 113.2448912 332.2783709 -0.89893 -0.41852 0.12947
59.1203906 108.9617535 321.5619326 -0.89104 -0.44034 0.11025
59.9616058 108.9176908 327.6307881 -0.89385 -0.43240 0.11861
60.6212765 108.8612452 332.2616816 -0.89863 -0.42200 0.11994
63.3878708 112.4374866 325.0001073 0.86712 0.49256 -0.07400
63.8219714 112.9865646 332.7597380 0.86919 0.43517 0.23481
65.3080866 108.9460924 324.9875605 0.86909 0.49056 -0.06344
67.8576529 104.7854796 327.8312981 0.87425 0.48218 -0.05640
59.5513023 112.5938222 337.2685313 -0.90379 -0.40804 0.12911
60.6606081 112.4439090 344.4553912 -0.57650 -0.25375 0.77670
61.1948334 109.7480878 340.2020931 -0.84818 -0.35882 0.38967
63.6214167 108.8394523 344.4604874 0.59649 0.21873 0.77224
64.3935576 112.6637980 337.2664154 0.73662 0.37452 0.56314
65.5381083 106.2624827 337.9271328 0.56968 0.25338 0.78183
71.8021542 107.4525267 9.8097222 -0.04210 0.69618 -0.71663
74.1371363 106.6688895 11.0556204 0.15515 0.71089 -0.68597
69.0702349 106.9815680 18.1194171 0.28554 0.72239 0.62977
73.1979012 105.8275029 17.1504281 0.34220 0.73109 0.59026
68.8930228 105.8385819 53.3295125 0.23672 0.14521 -0.96066
70.6947371 108.2372367 58.3352111 -0.10897 0.04485 0.99303
73.2479468 106.5732017 58.7060079 -0.11201 0.04524 0.99268
74.2441788 104.9566790 54.3357991 0.24936 0.17738 -0.95203
75.8365914 112.1270508 58.7884597 -0.10827 0.08847 0.99018
76.5510127 113.9592901 55.1344901 0.33484 0.39117 -0.85725
79.9173266 112.3273522 55.7333231 0.33431 0.37488 -0.86470
80.5728883 103.4646481 9.5011061 0.28627 0.67127 -0.68369
80.3655833 109.2693508 59.4680086 -0.13862 0.04485 0.98933
80.6026459 108.4750518 55.7465144 0.30854 0.30054 -0.90248
81.7526728 113.5465130 59.4717823 -0.08416 0.17096 0.98168
84.4816267 108.9361906 56.5396510 0.33087 0.35165 -0.87571
84.8817676 105.9647053 60.3151768 -0.14888 0.04064 0.98802
85.5504945 112.3879328 60.1743087 -0.10566 0.14521 0.98374
87.6938626 112.5697419 57.3044196 0.36946 0.45850 -0.80826
89.6888301 104.5091450 57.5140826 0.31985 0.30456 -0.89718
97.2222611 108.3095297 59.2436157 0.37402 0.45747 -0.80674
97.5281522 113.8384715 59.4822355 0.40157 0.57831 -0.71014
101.5356332 113.7851477 60.3647977 0.40669 0.61432 -0.67617
92.2493637 108.3437279 61.4407025 -0.16706 0.03796 0.98522
93.3554098 114.0934452 61.4112131 -0.02314 0.33255 0.94280
104.8894227 108.0507115 60.9059557 0.38924 0.52230 -0.75874
104.6940312 105.7323664 63.8463050 -0.01185 0.35022 0.93659
105.3244472 112.3988777 63.3996427 0.24809 0.69838 0.67136
108.6929739 108.1136540 64.5310953 0.05648 0.47038 0.88065
109.3849987 109.3392819 61.9376488 0.40209 0.59416 -0.69664
113.0151153 105.7993472 65.4247701 0.12509 0.59632 0.79294
22.0639482 116.1778197 3.6435330 -0.77739 0.21536 -0.59100
22.0639557 127.3862123 5.8530900 -0.56748 0.61915 -0.54278
22.0640320 125.7112920 5.8747283 -0.61822 0.57894 -0.53163
22.0640618 118.1052998 7.9681594 -0.85717 0.45167 -0.24751
22.0641941 126.1446327 11.7331101 -0.69093 0.72107 -0.05177
22.0639575 116.8509945 19.1445686 -0.83119 0.42235 0.36160
22.0641363 116.9577911 16.6390389 -0.80319 0.52067 0.28947
22.0642462 124.8323172 15.5899487 -0.66047 0.70084 0.26943
22.1831668 125.1241863 20.3777347 -0.65176 0.54821 0.52409
22.4318933 117.8826690 27.6066978 -0.59236 0.28478 0.75366
16.9022083 125.7910728 48.7983264 -0.48111 -0.05520 -0.87492
18.8985243 126.0155886 47.3891459 -0.64630 -0.03757 -0.76215
19.2963500 118.1756109 47.4054255 -0.53623 0.01572 -0.84393
20.8080318 124.7292608 46.1557396 -0.40226 0.10603 -0.90937
21.6633137 116.8503165 43.6494499 -0.60911 0.37559 -0.69851
22.2404152 116.0381585 40.3323695 -0.55390 0.77130 -0.31350
22.8170361 126.8185824 46.3590249 -0.25009 0.20674 -0.94590
12.0117785 117.5245121 53.5719693 -0.11154 0.06132 0.99187
14.5808468 119.4632575 50.1062833 -0.24560 -0.05405 -0.96786
16.1937121 124.0295842 53.5426140 -0.10659 0.06209 0.99236
19.4897540 117.3873842 54.1999415 -0.10283 0.05405 0.99323
20.4242114 126.0817051 53.7636019 -0.10124 0.06400 0.99280
22.9265131 117.5860763 2.7740891 -0.48218 0.12850 -0.86660
24.4032349 124.8640046 4.4511692 -0.58584 0.48487 -0.64938
24.8804241 126.9762814 6.8624602 -0.55568 0.67666 -0.48306
30.8613200 123.6240268 5.9476444 -0.52684 0.61372 -0.58804
31.6915847 117.0568094 2.3992641 -0.28151 0.13306 -0.95029
32.9976007 124.4176105 8.8213943 -0.53155 0.75921 -0.37558
23.8060262 121.2721765 24.5919917 0.02449 0.57424 0.81832
24.0768846 124.8143762 20.6042361 0.03210 0.69204 0.72115
25.0914767 128.0156076 15.5345518 -0.53950 0.77858 0.32056
27.5172498 120.6807494 23.4369542 0.03724 0.60490 0.79543
28.4594614 122.1364215 21.3954207 0.04325 0.66442 0.74610
30.0588906 117.8471074 25.2899919 0.04106 0.54757 0.83575
32.3965400 124.4554445 16.2780304 0.11418 0.81404 0.56948
25.4778564 116.6660115 27.8818104 -0.02717 0.48420 0.87454
24.1012797 125.4170090 46.0269228 -0.01853 0.25746 -0.96611
25.0723846 118.2301268 44.2195348 0.22666 0.49889 -0.83650
28.2346439 116.9800609 44.5032045 0.29750 0.44687 -0.84368
31.2945507 124.3378893 46.1851135 0.22960 0.19396 -0.95376
24.8778630 117.3202842 54.6434261 -0.09636 0.05175 0.99400
25.3166016 123.9584982 54.2836227 -0.09555 0.06132 0.99353
31.3793421 117.7765802 56.0732186 -0.45768 -0.10450 0.88295
32.3567726 124.8765886 56.9602549 -0.65481 0.28625 0.69949
36.2911895 119.6194664 4.4936254 -0.51304 0.47410 -0.71556
36.9229503 123.3203039 12.1883107 -0.58477 0.81023 -0.03953
37.2504108 121.7946261 7.3490608 -0.49786 0.68787 -0.52817
40.0654413 121.9236106 11.6582802 -0.58364 0.80526 -0.10450
41.0795957 116.5422425 3.8392488 -0.47972 0.38870 -0.78662
44.1621542 119.6228266 9.3493406 -0.51725 0.74352 -0.42383
35.6129296 123.3947277 15.3465541 -0.51594 0.77834 0.35777
37.6741923 117.6814660 21.7789691 0.06940 0.64442 0.76152
41.1529094 120.6205413 16.1462929 0.16203 0.80480 0.57100
41.3393863 116.9672832 20.7798835 0.08970 0.67298 0.73420
45.3886352 118.9016178 15.7625489 -0.45820 0.74964 0.47758
45.4272814 116.0732284 19.7717436 0.12469 0.70521 0.69795
37.2733921 125.1321733 47.4610440 0.31748 0.23665 -0.91826
37.8915481 120.6477582 47.5212857 0.27788 0.15090 -0.94869
40.5351296 116.6496873 48.0266325 0.24376 0.07586 -0.96686
41.9349968 124.9080747 48.5315844 0.32103 0.27594 -0.90598
36.0547751 125.0717938 60.2620952 0.16403 0.90118 0.40120
40.9625918 122.0262796 60.1139441 0.54148 0.68369 0.48926
41.1389954 125.0843853 57.1838021 0.32882 0.50751 0.79644
44.7277837 118.4212342 60.8470924 0.56122 0.69148 0.45485
35.3888832 119.4926277 61.1579530 -0.89392 -0.35488 0.27379
36.3508500 118.2842180 67.4769208 -0.89014 -0.45508 -0.02356
36.5949683 117.5209656 71.6145411 -0.88639 -0.46190 -0.03095
37.0758064 123.6917302 64.2058775 0.53478 0.84197 0.07138
39.9136655 121.4134097 64.3703714 0.65046 0.75696 0.06255
42.1934873 119.0579683 72.3040998 0.64867 0.76070 0.02364
42.4336307 119.1369742 65.2502254 0.65946 0.75015 0.04890
45.3705527 116.3978800 68.3497414 0.66089 0.74990 0.02967
35.8850434 123.8936260 73.0084553 0.38439 0.92270 0.02939
36.1503139 123.6034483 84.1437653 0.49356 0.86971 -0.00284
36.2633727 123.6192286 76.2485415 0.48074 0.87662 0.02048
36.4504904 117.4967438 76.5750706 -0.88333 -0.46835 -0.01931
36.7501453 116.8515459 84.3739882 -0.87532 -0.48353 0.00369
42.0714505 118.9495847 81.0886398 0.63997 0.76837 0.00712
42.5671488 118.6392382 76.7267272 0.64450 0.76443 0.01656
35.6923826 124.0083650 92.8349644 0.43089 0.90201 -0.02664
35.7149541 123.8622591 87.9070908 0.44524 0.89528 -0.01503
36.5390740 117.2212809 88.1951898 -0.87520 -0.48353 0.01477
36.7737673 117.0679927 92.5716832 -0.87342 -0.48621 0.02714
42.5081924 118.5967326 85.6500715 0.63999 0.76837 -0.00491
42.6109470 118.6587960 93.1692868 0.64036 0.76763 -0.02605
45.2316962 116.3825318 91.1314413 0.64267 0.76591 -0.01898
35.6789045 119.7078004 99.9315828 -0.89390 -0.44584 0.04666
36.2367332 124.0083501 99.9183357 0.50432 0.86242 -0.04343
36.7837213 123.9045709 103.7801579 0.52986 0.84670 -0.04850
